ply
format ascii 1.0
comment PCL generated
element vertex 245
property float x
property float y
property float z
element camera 1
property float view_px
property float view_py
property float view_pz
property float x_axisx
property float x_axisy
property float x_axisz
property float y_axisx
property float y_axisy
property float y_axisz
property float z_axisx
property float z_axisy
property float z_axisz
property float focal
property float scalex
property float scaley
property float centerx
property float centery
property int viewportx
property int viewporty
property float k1
property float k2
end_header
-0.33925727 0.13643725 0.76100004
-0.33761936 0.14783095 0.76310003
-0.33697161 0.15187015 0.764
-0.33695024 0.14831161 0.76711112
-0.3361142 0.15160331 0.76664007
-0.33471966 0.15164845 0.76900005
-0.34136727 0.13438198 0.77357149
-0.34183583 0.13721532 0.77300018
-0.33934298 0.13632096 0.77399999
-0.33662674 0.14784671 0.77172226
-0.33449465 0.1495897 0.7726
-0.33559018 0.15245174 0.77100003
-0.33338282 0.15132299 0.77216673
-0.33640268 0.1552929 0.77100003
-0.33912805 0.13453694 0.77500004
-0.34040901 0.13985416 0.77550006
-0.33856905 0.13745403 0.77675003
-0.34084675 0.14112559 0.77650005
-0.33986634 0.14030501 0.778
-0.33728078 0.14751004 0.77708334
-0.33460236 0.14919211 0.77625006
-0.33287022 0.1513869 0.77657145
-0.3373819 0.15609199 0.77700001
-0.33794382 0.13812515 0.78190005
-0.34120852 0.14284536 0.78228575
-0.33932397 0.14084245 0.78228575
-0.33715352 0.14799346 0.78216672
-0.33337268 0.15050307 0.78200006
-0.33749616 0.1391539 0.78616667
-0.34088638 0.14392833 0.78659999
-0.3383024 0.14143871 0.7876364
-0.34074119 0.1458903 0.78712505
-0.33709171 0.14814048 0.78736359
-0.33448207 0.14967719 0.78850007
-0.33405679 0.15031728 0.78750002
-0.34089571 0.15934496 0.78700006
-0.34102413 0.16289844 0.78757149
-0.33963418 0.16494073 0.78600001
-0.34009904 0.16557027 0.78900003
-0.34053007 0.14496672 0.79000002
-0.33710688 0.14381209 0.79137498
-0.34032881 0.14547473 0.79050004
-0.33698806 0.14642957 0.79132164
-0.33418626 0.14906257 0.79075003
-0.34141752 0.15992551 0.79400003
-0.34167615 0.16295065 0.79244447
-0.34042194 0.16571264 0.79233336
-0.33541393 0.14716846 0.79618186
-0.34199378 0.16248211 0.79710001
-0.3407414 0.1659907 0.79633337
-0.33682516 0.14819849 0.80300003
-0.33683038 0.15036176 0.80100006
-0.34207287 0.16300146 0.80158335
-0.34204027 0.168299 0.80200005
-0.34289646 0.16361038 0.80666667
-0.34275416 0.16892786 0.80500007
-0.33932617 0.14796561 0.81100005
-0.34388402 0.16420427 0.81100005
-0.34487677 0.1708236 0.81200004
-0.34529421 0.16415527 0.81500006
-0.34570315 0.16562156 0.81800002
-0.34628168 0.17208998 0.8173334
-0.34306234 0.15083879 0.82200003
-0.34697101 0.16536377 0.82100004
-0.34653509 0.17235608 0.82133341
-0.34864834 0.16593616 0.82600003
-0.34847435 0.17375331 0.82800007
-0.34926754 0.17604232 0.82850003
-0.35087165 0.1671959 0.833
-0.35099247 0.17860226 0.83200008
-0.34942257 0.17640047 0.83225012
-0.35250497 0.16741231 0.83775002
-0.35066727 0.17455214 0.83600003
-0.3508544 0.17795044 0.83750004
-0.34964681 0.17829849 0.83566666
-0.35223281 0.18198238 0.8375001
-0.34890193 0.18097934 0.83811116
-0.35057467 0.15856797 0.84000003
-0.34916154 0.15735751 0.84300005
-0.3527151 0.16002268 0.84300005
-0.35389927 0.16801853 0.84300011
-0.35276458 0.1702784 0.84100002
-0.35170516 0.17669153 0.84200001
-0.35159039 0.18423827 0.84066671
-0.34825802 0.18298033 0.84153342
-0.35542339 0.18623148 0.84100002
-0.35303482 0.18667521 0.84260005
-0.34868628 0.18511693 0.84400004
-0.35129565 0.15880905 0.84600002
-0.35522553 0.16205634 0.84900004
-0.3543866 0.16122723 0.847
-0.35558119 0.16794775 0.84825003
-0.35486186 0.16772455 0.84600002
-0.35522553 0.17010877 0.84900004
-0.35480714 0.17258936 0.84800005
-0.35284168 0.17763603 0.84650004
-0.34772944 0.18466404 0.84600002
-0.35152587 0.18871687 0.84636366
-0.34914041 0.18690948 0.84708339
-0.35288072 0.19038768 0.84766674
-0.35642713 0.16394749 0.85211122
-0.35243806 0.16418451 0.85308337
-0.35674405 0.16673143 0.85242856
-0.35365829 0.16619723 0.85385716
-0.34921771 0.16571067 0.85400003
-0.35577521 0.17135835 0.85300004
-0.3555176 0.17831044 0.85400003
-0.35402793 0.17913473 0.85150003
-0.34921494 0.18862243 0.85180008
-0.35167035 0.1924987 0.85231256
-0.34954119 0.19035131 0.85150003
-0.35216108 0.19529569 0.85350001
-0.35547161 0.16927461 0.85533333
-0.35231858 0.16796437 0.85585004
-0.34958398 0.16790399 0.85600007
-0.35639018 0.17251475 0.85740006
-0.3531554 0.17074363 0.85837495
-0.34994921 0.17010362 0.85800004
-0.35660648 0.1776949 0.85785717
-0.3543314 0.18088371 0.85766673
-0.35044447 0.18977454 0.85700005
-0.3508029 0.19361296 0.85650003
-0.34973863 0.19221392 0.85659999
-0.35210958 0.19641997 0.8572858
-0.35601795 0.17413943 0.86175007
-0.35310149 0.17298387 0.86183339
-0.35634172 0.17749737 0.86262512
-0.35568824 0.18055692 0.86150002
-0.35412499 0.18102841 0.86266667
-0.35092252 0.19236022 0.86150002
-0.34985861 0.19315778 0.86000001
-0.35277045 0.1979216 0.86180001
-0.35553899 0.17787245 0.86500007
-0.35318571 0.17765881 0.86617845
-0.3536514 0.18134135 0.86633343
-0.35164031 0.19348048 0.86550009
-0.3526032 0.19830801 0.86600012
-0.3562673 0.20158973 0.86900002
-0.35453367 0.20021209 0.86700004
-0.35157984 0.17910625 0.87100005
-0.35525146 0.18369573 0.87100005
-0.35290137 0.18053679 0.87200004
-0.35346833 0.19357011 0.87000006
-0.35272694 0.19814973 0.87100005
-0.356475 0.20268664 0.87175006
-0.35429704 0.20098309 0.87166673
-0.35411659 0.18177301 0.87500006
-0.35544446 0.19490509 0.87600005
-0.35607156 0.20348476 0.87716675
-0.35400176 0.20159711 0.87700003
-0.35816026 0.205294 0.87700003
-0.35561636 0.18301944 0.88100004
-0.35654479 0.196946 0.88100004
-0.35583347 0.20386167 0.88200009
-0.35468793 0.20158817 0.88100004
-0.35772049 0.20672067 0.88230002
-0.35790873 0.18468137 0.88900006
-0.35856831 0.19713002 0.88600004
-0.36043575 0.2092682 0.88600004
-0.35761073 0.20803304 0.8871001
-0.36071932 0.21091364 0.88900006
-0.3595801 0.21219873 0.88850009
-0.35697031 0.2087477 0.89075005
-0.36012185 0.21279712 0.89100003
-0.35911566 0.21191391 0.89025003
-0.35849333 0.20961908 0.89750004
-0.35829359 0.21092103 0.89700001
-0.36098728 0.21991797 0.89900005
-0.35909247 0.21897055 0.89900005
-0.36243176 0.22173053 0.89866668
-0.36572123 0.19747263 0.90250003
-0.36328572 0.19929647 0.90000004
-0.36204231 0.20685098 0.90400004
-0.36013699 0.21161434 0.90400004
-0.35973859 0.21233189 0.90300006
-0.36132187 0.22262985 0.90090919
-0.35874969 0.22289817 0.90211117
-0.36159849 0.22620568 0.90357155
-0.35870796 0.22590446 0.90400004
-0.36460117 0.19054222 0.90800005
-0.36679155 0.19856612 0.90750003
-0.36555806 0.20106801 0.90800005
-0.36435026 0.20135742 0.90500003
-0.36133212 0.21136077 0.90700006
-0.36053535 0.22806183 0.90500003
-0.36699039 0.19298278 0.91275012
-0.36839864 0.1988949 0.91266674
-0.36679542 0.20242281 0.91266674
-0.36665919 0.19357876 0.91633338
-0.37032717 0.1975843 0.91624999
-0.3684462 0.19788191 0.91838092
-0.36417571 0.19962992 0.91900003
-0.36709908 0.20163868 0.91772741
-0.36030179 0.2005984 0.91900003
-0.35933331 0.2005984 0.91900003
-0.36764917 0.20570046 0.91800004
-0.36514422 0.21415716 0.91900003
-0.36403704 0.21274289 0.91500002
-0.36622497 0.19413503 0.92050004
-0.36457199 0.19499946 0.92000002
-0.36615801 0.19741352 0.92033339
-0.36315963 0.19870248 0.92087513
-0.36671779 0.20326622 0.92133331
-0.36271006 0.20196502 0.92081261
-0.35972431 0.20178622 0.92000002
-0.36839175 0.20547357 0.92350006
-0.36673352 0.2141166 0.92300004
-0.36571702 0.19746113 0.92700005
-0.36392567 0.1994139 0.92700005
-0.36557856 0.20483249 0.92500007
-0.37027666 0.20820612 0.92700005
-0.36821321 0.20725705 0.92672729
-0.36382818 0.20522001 0.92675006
-0.3673459 0.21602142 0.92700005
-0.36667421 0.1984202 0.93150008
-0.36755741 0.20859994 0.93166667
-0.36461446 0.20691979 0.93000007
-0.37110412 0.21174692 0.93400002
-0.3695904 0.21046174 0.93266672
-0.36853474 0.21574046 0.93000007
-0.36834633 0.1990954 0.93700004
-0.36558941 0.2090176 0.93500006
-0.37059689 0.21346048 0.93719995
-0.36843318 0.21149006 0.93722224
-0.37038657 0.21660812 0.93800002
-0.36953077 0.21690035 0.93500006
-0.36739761 0.21365015 0.94138467
-0.37066224 0.21655679 0.94099998
-0.36873055 0.21687089 0.94286668
-0.37028146 0.20371625 0.94700003
-0.37614653 0.20390162 0.96200007
-0.37888354 0.20436414 0.96900004
-0.37903225 0.20704553 0.97200006
-0.38279361 0.20544145 0.97900003
-0.3833217 0.20835268 0.98300004
-0.38384137 0.21024068 0.98700005
-0.38578585 0.20869166 0.99200004
-0.3853471 0.21109994 0.99266672
-0.38597846 0.20869233 0.99700004
-0.38435319 0.20913358 0.99860001
-0.38560098 0.21194966 0.99625009
-0.38358459 0.21217516 0.99811769
-0.38397905 0.20809186 1
-0.38257393 0.21230721 1
-0.37888548 0.21300979 1
0 0 0 1 0 0 0 1 0 0 0 1 0 0 0 0 0 245 1 0 0
