ply
format ascii 1.0
comment PCL generated
element vertex 552
property float x
property float y
property float z
element camera 1
property float view_px
property float view_py
property float view_pz
property float x_axisx
property float x_axisy
property float x_axisz
property float y_axisx
property float y_axisy
property float y_axisz
property float z_axisx
property float z_axisy
property float z_axisz
property float focal
property float scalex
property float scaley
property float centerx
property float centery
property int viewportx
property int viewporty
property float k1
property float k2
end_header
-0.15078333 0.28899422 0.74900001
-0.14850788 0.28740224 0.74821055
-0.15643011 0.28848693 0.75338471
-0.1527276 0.28744876 0.7518236
-0.14950348 0.28601366 0.75050008
-0.16591099 0.29087782 0.75362504
-0.16240895 0.29073027 0.75350004
-0.15778512 0.29090211 0.7535333
-0.15344372 0.29047626 0.75120008
-0.16664188 0.28898451 0.75676924
-0.16248251 0.28880471 0.75643331
-0.15785189 0.28757793 0.75656527
-0.15299268 0.2862967 0.75699997
-0.16845188 0.29148123 0.75709999
-0.15915208 0.29051366 0.75500005
-0.17071089 0.28995106 0.76400006
-0.16717087 0.28844732 0.76215798
-0.16229422 0.28708935 0.76228577
-0.15756121 0.28594163 0.76200008
-0.15360093 0.28684297 0.76185721
-0.17131203 0.29242438 0.76253849
-0.16981712 0.29123622 0.76000005
-0.17209561 0.29520008 0.76300001
-0.16207746 0.28472942 0.76620001
-0.15964767 0.28468722 0.76500005
-0.17159685 0.28913227 0.76760012
-0.16755338 0.28732243 0.76717401
-0.16309938 0.28566578 0.76522225
-0.15743721 0.28561753 0.76657146
-0.15391497 0.2872076 0.76742858
-0.17506973 0.29306424 0.76900005
-0.17348121 0.2921465 0.76712495
-0.17429173 0.29610062 0.76700002
-0.17677359 0.28817096 0.77290481
-0.17261261 0.28756636 0.77171892
-0.16877848 0.28641868 0.77111113
-0.16110779 0.28566507 0.77200001
-0.15565637 0.28695163 0.77240002
-0.15202585 0.28765172 0.77196163
-0.14902441 0.28745759 0.77346677
-0.17706308 0.29234979 0.77200013
-0.17448594 0.29060522 0.77000004
-0.17758162 0.29715407 0.77240014
-0.18110165 0.2897484 0.77750003
-0.17639843 0.28653041 0.77700007
-0.17333736 0.28635672 0.77709097
-0.161742 0.2866964 0.77700007
-0.15591055 0.28733021 0.77649999
-0.15245017 0.28653997 0.7768001
-0.14893505 0.28631103 0.77640003
-0.18155061 0.29267848 0.77766663
-0.17974126 0.29214716 0.77516669
-0.18254223 0.29789531 0.77781492
-0.17976888 0.29750153 0.77528578
-0.18317707 0.30071384 0.77785718
-0.17754288 0.28613192 0.78240001
-0.17382045 0.28658047 0.7816
-0.16312514 0.28759456 0.78166676
-0.15694471 0.28811383 0.78233337
-0.15214162 0.28635731 0.7816667
-0.18580197 0.29446149 0.78350008
-0.18377504 0.29269078 0.78120005
-0.19075608 0.29941559 0.78350008
-0.18715203 0.29803306 0.78208709
-0.18426801 0.2960752 0.78049999
-0.19107206 0.30172777 0.78366667
-0.18795449 0.30136469 0.78194118
-0.18100995 0.28719312 0.78780007
-0.17755046 0.28620288 0.78718746
-0.17463401 0.2877982 0.78900003
-0.16610441 0.28831169 0.78700006
-0.16288903 0.28880695 0.78750002
-0.15700737 0.28804693 0.78712505
-0.15387192 0.28665319 0.78700006
-0.18659669 0.29352826 0.78720003
-0.19197085 0.29878208 0.78699994
-0.18858576 0.29696932 0.78649998
-0.19596599 0.30300856 0.78845459
-0.19353695 0.30253249 0.78592867
-0.19749978 0.30525935 0.78900003
-0.18209589 0.28634524 0.7918824
-0.1773819 0.28628394 0.79186666
-0.17272754 0.28868219 0.79309088
-0.16721502 0.28749162 0.79204351
-0.16246091 0.28809512 0.79203236
-0.15812621 0.28763583 0.79205883
-0.18829446 0.29345402 0.79260004
-0.19582273 0.29966304 0.79400003
-0.19256081 0.29806593 0.79214287
-0.18951567 0.29570526 0.79124999
-0.20000648 0.30384681 0.79400003
-0.19780917 0.30242768 0.79170585
-0.2005903 0.30597052 0.79300004
-0.19912484 0.3054229 0.79050004
-0.18182667 0.28495997 0.79500002
-0.18610415 0.28859109 0.79742861
-0.18296821 0.28668308 0.79560006
-0.17720984 0.28665453 0.79684615
-0.17333488 0.28774628 0.79653341
-0.19102277 0.29396209 0.79783338
-0.18776062 0.29171842 0.7971766
-0.19572245 0.29932463 0.79700005
-0.19273926 0.29690602 0.79693341
-0.20142579 0.30359569 0.79729998
-0.19863597 0.30119553 0.79633343
-0.20267785 0.30551222 0.79660004
-0.19096848 0.28970021 0.80350006
-0.1889561 0.28909898 0.80125004
-0.18150942 0.28626648 0.801
-0.17583089 0.28738213 0.80333334
-0.17423922 0.28743646 0.80250001
-0.195666 0.29399467 0.80366665
-0.19256838 0.29238245 0.80225939
-0.18923183 0.29080757 0.80033344
-0.19674857 0.29788595 0.80226326
-0.19415453 0.29618379 0.80042869
-0.20554684 0.30415794 0.80366677
-0.20271346 0.30259153 0.8021906
-0.19904521 0.30059183 0.80150008
-0.20676678 0.30599216 0.80255562
-0.20446864 0.30529979 0.80000001
-0.19140328 0.28938574 0.8064
-0.18223317 0.28712028 0.80720007
-0.17754406 0.28746077 0.8079167
-0.17420694 0.28743547 0.80725002
-0.20061496 0.29311621 0.80825007
-0.1973493 0.29250216 0.80696553
-0.19368589 0.29060119 0.80600011
-0.20188266 0.29795277 0.80742317
-0.19882281 0.29697502 0.80593354
-0.20705327 0.30297613 0.80694997
-0.20347005 0.30099151 0.80590916
-0.2103451 0.30579829 0.80800003
-0.20879047 0.30568561 0.8058334
-0.17888066 0.2849077 0.81400001
-0.19208628 0.28948298 0.81000006
-0.18531439 0.28833899 0.81400001
-0.1821027 0.2872133 0.81307155
-0.17776486 0.28648251 0.81168419
-0.17416039 0.2869221 0.81000006
-0.2057758 0.29344782 0.81350011
-0.2026317 0.2920723 0.81166673
-0.19816293 0.29076049 0.81158334
-0.19384414 0.29019773 0.81200004
-0.20646439 0.29663408 0.81283337
-0.20379432 0.2965149 0.81016666
-0.21068032 0.30443615 0.81175005
-0.20915854 0.30271393 0.81000006
-0.21224213 0.30645642 0.81200004
-0.20253846 0.2899074 0.81600004
-0.18669184 0.28848308 0.81711113
-0.18337734 0.28681287 0.81628573
-0.20711142 0.29224926 0.81717652
-0.20254062 0.29032055 0.81716675
-0.19762063 0.2907784 0.81700009
-0.19382054 0.29058915 0.81550002
-0.21075042 0.29874605 0.81783324
-0.20900445 0.29693037 0.81639993
-0.21265788 0.30285299 0.81718183
-0.21579801 0.30650899 0.81900007
-0.21412338 0.30547312 0.81699997
-0.19019608 0.28927615 0.82400006
-0.18812901 0.28867605 0.82180005
-0.18495204 0.28700775 0.82000005
-0.21082628 0.29334146 0.82250005
-0.20778993 0.29091486 0.82146156
-0.2021092 0.29067513 0.82212508
-0.19746685 0.29157928 0.82233334
-0.19281626 0.29117802 0.8228333
-0.21238792 0.29756895 0.8218751
-0.21609807 0.30400023 0.82233334
-0.21390311 0.30144456 0.82166672
-0.21719079 0.30602056 0.82100004
-0.19117922 0.28916678 0.82700008
-0.1888127 0.28841075 0.82650006
-0.21264593 0.2926535 0.82733339
-0.20791282 0.2907185 0.82625008
-0.20264415 0.291408 0.82659996
-0.19726653 0.29237804 0.82725006
-0.19342139 0.29107782 0.82771432
-0.21551447 0.29760775 0.8278572
-0.21426424 0.29621348 0.82639998
-0.21691673 0.30218801 0.8276667
-0.22078717 0.30682266 0.82800007
-0.21906656 0.30572423 0.82700008
-0.19227687 0.28900814 0.83163637
-0.18962193 0.28866795 0.83100003
-0.21594854 0.29380843 0.83233339
-0.2126364 0.29160827 0.83171433
-0.20725246 0.29173341 0.83171427
-0.20241919 0.29257441 0.83140004
-0.19704227 0.29213139 0.83190912
-0.19420506 0.29050785 0.83000004
-0.21798836 0.29758683 0.8324545
-0.21874139 0.30280599 0.83225012
-0.22144668 0.30694327 0.8326667
-0.21703786 0.29363176 0.83766669
-0.21270426 0.29216436 0.83683342
-0.2072262 0.29284123 0.83666676
-0.2021303 0.29338691 0.83642858
-0.19881089 0.29278204 0.83650011
-0.22564252 0.29909468 0.83875006
-0.22222243 0.2982198 0.83705556
-0.21930571 0.29595587 0.83700001
-0.2253543 0.30099422 0.83850002
-0.22240955 0.30240858 0.83738881
-0.22548868 0.30868891 0.83900005
-0.22312354 0.3068822 0.83736366
-0.21737058 0.29357356 0.84180003
-0.21310854 0.29270133 0.84133339
-0.20793943 0.29388323 0.84133333
-0.20255777 0.29404169 0.84200007
-0.19900461 0.29252118 0.8416667
-0.23039025 0.2998552 0.84400004
-0.22715178 0.29857296 0.8423571
-0.22224839 0.29685465 0.84180003
-0.23073165 0.30358133 0.84200007
-0.2275892 0.30350816 0.84123075
-0.22442959 0.30418807 0.84000003
-0.23058562 0.30757084 0.84285718
-0.2276258 0.30719945 0.84180009
-0.22428207 0.30640113 0.83999997
-0.21771258 0.2937305 0.84600002
-0.21284886 0.29392868 0.84640008
-0.20706503 0.29486749 0.84500003
-0.20271392 0.29425856 0.84666663
-0.23153751 0.29887682 0.84711111
-0.22777519 0.29796743 0.84700006
-0.22258502 0.29663688 0.84687501
-0.21003431 0.2950207 0.84800005
-0.20705615 0.29531786 0.84800005
-0.20467237 0.2950207 0.84800005
-0.23302273 0.30175894 0.84710008
-0.22019345 0.29471862 0.85100007
-0.21795194 0.29427075 0.85100001
-0.21321698 0.29482073 0.85000002
-0.20266068 0.29430535 0.85175002
-0.23319648 0.2990531 0.85100001
-0.22767983 0.29811656 0.85216671
-0.22303306 0.29652321 0.85200006
-0.21172088 0.29586127 0.85300004
-0.20733467 0.29591355 0.85160005
-0.20449962 0.29516757 0.85100001
-0.23667614 0.30201986 0.85262507
-0.23485345 0.30081978 0.85049999
-0.20356396 0.29481792 0.85650003
-0.23755148 0.29995811 0.85700005
-0.23086937 0.29858971 0.8556667
-0.22759898 0.29819694 0.85655564
-0.22295459 0.29636425 0.85742861
-0.21903706 0.29544237 0.85700005
-0.2136398 0.29669133 0.85800004
-0.20733881 0.29619813 0.85624999
-0.20461155 0.2952266 0.85900003
-0.24068144 0.30093521 0.8585
-0.23894107 0.30097061 0.85680008
-0.2314003 0.29924026 0.86100006
-0.22764699 0.29833359 0.86200005
-0.22258577 0.29643917 0.86199999
-0.2162264 0.29716608 0.86199999
-0.21229136 0.29761922 0.86199999
-0.20744507 0.29635766 0.86200005
-0.23984584 0.30079976 0.86200005
-0.25791049 0.30709267 0.86266667
-0.23046359 0.29945767 0.86600006
-0.22734666 0.29833534 0.86728579
-0.2227433 0.29666796 0.86733341
-0.21714912 0.2976903 0.86750007
-0.21244308 0.29778743 0.86721438
-0.2079121 0.29629558 0.8662858
-0.20423187 0.29569083 0.86700004
-0.25883144 0.30449706 0.86839998
-0.24141514 0.30128291 0.86600006
-0.23301339 0.3002595 0.86700004
-0.25695473 0.30690798 0.86750007
-0.25461462 0.30690557 0.86900002
-0.23106968 0.29992402 0.87000006
-0.22738284 0.29812828 0.87212509
-0.22264108 0.29693767 0.87200004
-0.21710613 0.29719186 0.8717857
-0.21284892 0.29683945 0.87192309
-0.20780659 0.29630277 0.87136364
-0.26038662 0.30463824 0.87300003
-0.25770622 0.30463025 0.87140006
-0.24273454 0.30208656 0.87183338
-0.23565388 0.30084085 0.87000006
-0.23330767 0.3006818 0.87220001
-0.25565904 0.30531666 0.87100005
-0.25446564 0.30559191 0.87100011
-0.23035479 0.29968399 0.87600005
-0.22726747 0.29804182 0.87757146
-0.22210342 0.29688826 0.87683338
-0.21775763 0.29658633 0.87678581
-0.21234383 0.29628718 0.87700003
-0.20827238 0.29644337 0.87714291
-0.24616247 0.30220041 0.87750006
-0.24274611 0.30168793 0.87676919
-0.23768577 0.30193073 0.87750006
-0.23297225 0.30085304 0.87716669
-0.2612499 0.30580565 0.87900007
-0.25653568 0.3062667 0.87766671
-0.23053886 0.29941344 0.88200003
-0.22724314 0.29763797 0.88199997
-0.22258139 0.29641956 0.88208342
-0.21732914 0.29589111 0.88120002
-0.21249074 0.29600444 0.88200015
-0.20877387 0.29627162 0.88233334
-0.25034168 0.30254453 0.88300002
-0.24723387 0.30161735 0.88238466
-0.24268708 0.30151629 0.88190001
-0.23802873 0.30227041 0.88220006
-0.23319317 0.30103433 0.88266677
-0.2565667 0.30731305 0.88200009
-0.25470561 0.30777887 0.88200003
-0.23109734 0.29886588 0.88700008
-0.22760683 0.29732919 0.88687509
-0.22239847 0.29630333 0.88660002
-0.21730725 0.29590207 0.88680011
-0.21265423 0.29580572 0.88666672
-0.20956506 0.29590225 0.88633341
-0.25176439 0.30189836 0.88681829
-0.24805954 0.30083543 0.8866154
-0.24291193 0.30176863 0.88687503
-0.23778735 0.30265355 0.88650006
-0.23388989 0.30133605 0.8876667
-0.25708359 0.30858883 0.88700008
-0.23180935 0.29850981 0.89200002
-0.2275123 0.29716706 0.89199996
-0.22268748 0.29653087 0.89150012
-0.21768229 0.29612628 0.89216679
-0.21246953 0.29571834 0.89160013
-0.25571337 0.30421817 0.89200002
-0.25295153 0.30244184 0.89000005
-0.24736211 0.30100343 0.89142859
-0.24206059 0.30284509 0.89211112
-0.23734559 0.30269396 0.89166665
-0.23431821 0.3008149 0.89166671
-0.2564711 0.30691302 0.89300001
-0.2319949 0.29806608 0.89722228
-0.22749548 0.29691842 0.89750004
-0.22270456 0.29661861 0.89642853
-0.21740262 0.29641458 0.89683342
-0.21236227 0.29616281 0.89750004
-0.25058231 0.30116513 0.89550006
-0.24749753 0.30247882 0.89800006
-0.24207529 0.30362785 0.89719999
-0.23729548 0.30195245 0.89700001
-0.26639909 0.30924934 0.89760005
-0.26194635 0.30921793 0.89833349
-0.25852063 0.30772263 0.8961429
-0.21033414 0.29417127 0.90300006
-0.2096144 0.29449704 0.90400004
-0.23544931 0.29954782 0.90200001
-0.23247062 0.29780665 0.90212506
-0.22795659 0.29663122 0.90244442
-0.22219844 0.29712832 0.90200001
-0.21712856 0.29670146 0.90242857
-0.21245557 0.29620802 0.90209097
-0.20902561 0.29681146 0.90283346
-0.24744651 0.30368745 0.90300006
-0.24231826 0.30369925 0.90162504
-0.23838411 0.30176845 0.90214294
-0.26618388 0.30905381 0.90200001
-0.26334426 0.30917853 0.90157145
-0.26523408 0.31000513 0.90200007
-0.21007814 0.29419377 0.90600002
-0.23633412 0.29944456 0.90600002
-0.23283593 0.29794565 0.90725005
-0.22721365 0.29706481 0.90675002
-0.22262526 0.29787782 0.90850002
-0.21715946 0.29658878 0.90700001
-0.21421553 0.29578474 0.90599996
-0.25092989 0.30407685 0.90700006
-0.24678989 0.30462694 0.90816665
-0.24235283 0.30340099 0.90688896
-0.23868051 0.30112606 0.90675002
-0.23593956 0.29932863 0.91000003
-0.23261371 0.29806429 0.91200006
-0.22642818 0.29814601 0.91225004
-0.2223337 0.29826385 0.91320008
-0.2179969 0.2968882 0.91183335
-0.21484162 0.29549265 0.91000003
-0.24700482 0.30463824 0.91250014
-0.24321894 0.30315071 0.91212505
-0.23843755 0.30061656 0.91100001
-0.25046167 0.30546045 0.91400003
-0.23582175 0.29969841 0.91700006
-0.23434314 0.29904476 0.91500002
-0.22713549 0.29938358 0.91900003
-0.22271721 0.29873478 0.91775006
-0.21907125 0.29712072 0.917
-0.25059035 0.30486241 0.91800004
-0.24762517 0.30448788 0.91687506
-0.24313596 0.30292135 0.91725004
-0.23749523 0.30033693 0.91600007
-0.25110072 0.30559599 0.91633338
-0.23465417 0.29970935 0.92000002
-0.22812411 0.29971397 0.92300004
-0.22287373 0.29893544 0.92180002
-0.2505286 0.30467418 0.92133337
-0.24768831 0.30424067 0.92100006
-0.23756278 0.30067888 0.92000002
-0.2275598 0.3000387 0.92400002
-0.25344214 0.30661643 0.92133331
-0.22373973 0.29938433 0.92700005
-0.24747463 0.30467379 0.9262501
-0.24470273 0.30426264 0.92500007
-0.23728792 0.30133843 0.92650008
-0.23058605 0.30068326 0.92900002
-0.22734308 0.30027869 0.92775005
-0.25660545 0.30850628 0.92750001
-0.25402403 0.30687433 0.92700005
-0.22348373 0.29904678 0.93000007
-0.23709416 0.30149084 0.93150008
-0.23071951 0.30115598 0.93350005
-0.22686875 0.30050549 0.93250006
-0.25686693 0.3090201 0.93200004
-0.25097433 0.30558297 0.93200004
-0.24789526 0.30541903 0.93150002
-0.2418229 0.30360395 0.93650007
-0.23651838 0.30179036 0.93700004
-0.23220104 0.30138323 0.93650007
-0.22802827 0.3007732 0.93660003
-0.25218573 0.30667067 0.93833333
-0.2481892 0.30606925 0.93725008
-0.25944945 0.3108401 0.93600005
-0.24317881 0.30431309 0.94175005
-0.23740529 0.30242312 0.94050002
-0.23225968 0.30183154 0.94174999
-0.22951342 0.30136743 0.94133335
-0.25244653 0.3072021 0.94300002
-0.24815348 0.30641365 0.9418
-0.24470842 0.30523419 0.94000006
-0.26182708 0.31250057 0.94100004
-0.25956762 0.31117788 0.94000006
-0.24501418 0.30486602 0.94500005
-0.2413718 0.30429888 0.94633341
-0.23979773 0.30383572 0.94800007
-0.2320677 0.30187833 0.94500005
-0.25524279 0.30817941 0.94600004
-0.25215405 0.30766955 0.94750005
-0.24772787 0.30650836 0.94700003
-0.26421523 0.31416103 0.94600004
-0.24155878 0.30479723 0.95100003
-0.23144297 0.30311123 0.95200008
-0.25649548 0.30929315 0.95250005
-0.25179267 0.30786175 0.95180005
-0.24724923 0.30656227 0.95233339
-0.24356216 0.30529782 0.95100003
-0.26460952 0.31481931 0.95100003
-0.23577648 0.30337733 0.95600003
-0.22973165 0.3043848 0.95600003
-0.25565827 0.30909851 0.95500004
-0.25247759 0.30856559 0.95725012
-0.24762119 0.30722451 0.95700002
-0.24458766 0.30607924 0.95500004
-0.25848055 0.31057429 0.95800006
-0.26652241 0.31568667 0.95666671
-0.23598063 0.30458388 0.96300006
-0.25212458 0.30899826 0.96200007
-0.24916255 0.30800223 0.96100003
-0.23218729 0.30528137 0.96200007
-0.26730239 0.31456897 0.9625001
-0.2578705 0.31068829 0.96200007
-0.27076644 0.31810689 0.96400005
-0.2687602 0.31666127 0.96166676
-0.25249493 0.30960476 0.96600002
-0.23824278 0.30553272 0.96600002
-0.26192793 0.3129825 0.96700007
-0.25746435 0.31103808 0.96650004
-0.25403783 0.31024575 0.96800005
-0.27226669 0.31770566 0.96680003
-0.26924551 0.31557679 0.96766669
-0.25149602 0.30986452 0.97000003
-0.24842736 0.30908945 0.97400004
-0.26216799 0.31346893 0.97166675
-0.25713766 0.31152776 0.97200006
-0.25277859 0.310184 0.97100008
-0.27553034 0.31843004 0.97275007
-0.27273312 0.31657952 0.97100008
-0.28537932 0.32140675 0.97400004
-0.28171703 0.32195523 0.97300005
-0.27748808 0.32166225 0.9726001
-0.24996604 0.30972415 0.97600007
-0.26320279 0.31419185 0.97550005
-0.25704682 0.31226039 0.97750008
-0.2772485 0.31879181 0.97700006
-0.27271989 0.31669793 0.97583336
-0.26669583 0.31621912 0.97700006
-0.28552067 0.32169604 0.97800004
-0.28213915 0.32159501 0.977
-0.27910796 0.3210375 0.97600007
-0.24995771 0.30996072 0.98000002
-0.26158375 0.31389484 0.98100007
-0.25783414 0.31270182 0.98050004
-0.25150272 0.31059331 0.98200005
-0.27778205 0.31854793 0.98100013
-0.27203283 0.31764323 0.98140001
-0.26754221 0.31680149 0.98199999
-0.26445869 0.31537378 0.98400003
-0.28565356 0.3219769 0.98200005
-0.28250045 0.32123181 0.9818334
-0.27990794 0.32028839 0.98000002
-0.26144972 0.31460103 0.98700005
-0.25752795 0.31329316 0.98725009
-0.25148878 0.31081936 0.98600006
-0.24914169 0.31061345 0.98700005
-0.28029802 0.31984645 0.98500007
-0.27693099 0.31822392 0.98533344
-0.27265623 0.31854469 0.98740005
-0.26630512 0.31633529 0.98700005
-0.26476026 0.31593403 0.98900002
-0.29305163 0.32432753 0.98600006
-0.28673339 0.32273957 0.98750007
-0.28324777 0.32119685 0.98660004
-0.30071792 0.32844108 0.98900002
-0.29885206 0.328109 0.98800004
-0.29468724 0.32602656 0.98800004
-0.25733024 0.31339163 0.99250007
-0.25280187 0.31161231 0.99183345
-0.28048161 0.31930479 0.99300003
-0.27734095 0.31930479 0.99300003
-0.27200153 0.31896687 0.99260008
-0.26774377 0.31734699 0.99233341
-0.26262474 0.31556231 0.99275005
-0.29019174 0.32381642 0.99400002
-0.28725621 0.32290325 0.99200004
-0.28392819 0.32115394 0.99225003
-0.30189067 0.32837039 0.9932
-0.29788727 0.32689366 0.99133343
-0.26006776 0.31491739 0.99900007
-0.25685507 0.3131569 0.99675006
-0.25411317 0.31099129 0.99766666
-0.27162945 0.31901446 0.99700004
-0.26681867 0.31740645 0.99800009
-0.26199836 0.31568745 0.99700004
-0.29126254 0.32395953 0.99766666
-0.28692132 0.32254612 0.99720013
-0.28266212 0.32059103 0.99700004
-0.27480683 0.32018134 0.99900007
-0.30639052 0.32965642 0.99900007
-0.30270848 0.32767516 0.99688888
-0.29834801 0.32623935 0.99500006
-0.25663966 0.31259799 1
-0.27297422 0.31944796 1
-0.2634896 0.31628644 1
-0.28772801 0.32260951 1
-0.28087801 0.3205018 1
-0.27771652 0.3205018 1
-0.30564335 0.32893255 1
-0.30090106 0.32682487 1
-0.29932028 0.32682487 1
0 0 0 1 0 0 0 1 0 0 0 1 0 0 0 0 0 552 1 0 0
