ply
format ascii 1.0
comment PCL generated
element vertex 1378
property float x
property float y
property float z
element camera 0
property float view_px
property float view_py
property float view_pz
property float x_axisx
property float x_axisy
property float x_axisz
property float y_axisx
property float y_axisy
property float y_axisz
property float z_axisx
property float z_axisy
property float z_axisz
property float focal
property float scalex
property float scaley
property float centerx
property float centery
property int viewportx
property int viewporty
property float k1
property float k2
end_header
0.25723916 0.072830252 0.68587774
0.26058 0.073001556 0.68500012
0.26972386 0.074204691 0.68500012
0.27276728 0.073500305 0.68536383
0.27754351 0.072954118 0.68564856
0.28260264 0.072446734 0.68570232
0.28757209 0.072351523 0.68567377
0.2916798 0.072766304 0.68519366
0.29830089 0.073474586 0.68515807
0.30262595 0.072401367 0.68631732
0.30779949 0.072536685 0.68772334
0.31252232 0.072465591 0.68675488
0.31751016 0.0724582 0.68625015
0.32258588 0.072506942 0.68714297
0.32735667 0.072505869 0.68871409
0.35404873 0.071655944 0.68883342
0.35727957 0.072485298 0.68749189
0.36246392 0.072479032 0.68702275
0.36745504 0.072450653 0.68673092
0.37239197 0.072582334 0.68688107
0.37754861 0.072561152 0.68767345
0.38235834 0.072448283 0.68625462
0.3871507 0.072310373 0.68582082
0.39252657 0.072554283 0.68812817
0.39831764 0.07226821 0.6889413
0.40116912 0.072364137 0.68690002
-0.010185184 0.075606123 0.68900001
-0.0080068903 0.075878404 0.68900007
0.0039737299 0.079599664 0.68900001
0.0062238993 0.079515457 0.68890011
0.039915588 0.078510508 0.68900001
0.042738557 0.077692188 0.6884563
0.046144869 0.076367721 0.68850005
0.053885199 0.076181307 0.68857151
0.057621449 0.077319227 0.68833321
0.062361132 0.077705473 0.68830597
0.066439368 0.078007035 0.68867844
0.10913694 0.079478644 0.68900007
0.11275689 0.078223504 0.68837816
0.11741288 0.077656135 0.68785703
0.12217584 0.076704271 0.68814284
0.12782051 0.076556399 0.68849987
0.1315302 0.076248631 0.68890011
0.15173471 0.079962708 0.68900001
0.16988716 0.075606123 0.68900001
0.17061326 0.075606123 0.68900001
0.19394521 0.078462109 0.68900007
0.19736278 0.07810089 0.68859494
0.20163964 0.078653269 0.68886966
0.21417913 0.077784419 0.68900007
0.21742019 0.077535033 0.68741179
0.22235276 0.077651091 0.68780947
0.22744246 0.077738516 0.6888693
0.23256825 0.077649482 0.68727875
0.23758104 0.07748314 0.68633366
0.24250841 0.077670947 0.68799984
0.24759692 0.0781129 0.68899965
0.25267729 0.077731244 0.68818164
0.25748417 0.077359229 0.68594474
0.2624239 0.078644358 0.68541664
0.26777548 0.077768125 0.68564713
0.27245632 0.077616438 0.686773
0.27716511 0.077382766 0.68605798
0.282525 0.076181822 0.68556017
0.28765944 0.077249631 0.68568915
0.29277942 0.077507995 0.68616033
0.29767084 0.077404231 0.685633
0.30254725 0.077484518 0.6859073
0.30750692 0.077458397 0.68652111
0.31268868 0.077544577 0.68687773
0.31763166 0.077570252 0.68670869
0.32247114 0.077617288 0.68721968
0.32678849 0.077950791 0.6886428
0.34959644 0.078964323 0.68900007
0.35248649 0.077961385 0.68871039
0.35654119 0.077269115 0.68899983
0.36066943 0.075787649 0.68900001
0.3694298 0.075760216 0.68875003
0.3726348 0.077212423 0.68790466
0.37729803 0.077545218 0.68755323
0.38251835 0.077016875 0.68776304
0.3874903 0.077434175 0.68734097
0.39229536 0.077717967 0.68768179
0.39749366 0.077633731 0.68803823
0.40164411 0.077756822 0.68629795
0.0039319922 0.081792153 0.68877786
0.0071966872 0.082278788 0.68828189
0.010750647 0.081838466 0.68900007
0.039915588 0.080688812 0.68900001
0.042456929 0.081678964 0.68900007
0.046595689 0.081705347 0.68900001
0.059135597 0.081022583 0.68875003
0.062252454 0.081296295 0.68830001
0.066418171 0.080688812 0.68900001
0.10896752 0.081560127 0.68900007
0.11242008 0.081701986 0.688357
0.11671788 0.081319369 0.6886
0.14899166 0.081656948 0.68900007
0.15161368 0.081656948 0.68900007
0.19402991 0.081414916 0.68900007
0.19747552 0.082006529 0.6886059
0.20248125 0.082399234 0.6889208
0.20546597 0.082504049 0.68900001
0.21369508 0.082060337 0.68900007
0.21764357 0.081557311 0.68866664
0.22269478 0.081590585 0.68895012
0.22746019 0.082370408 0.68854314
0.23234227 0.081738979 0.68758065
0.23767023 0.081263714 0.68680006
0.24250712 0.082006119 0.68806654
0.2472674 0.081878401 0.68889642
0.25257656 0.081312336 0.68840915
0.25775883 0.081438214 0.68772006
0.26252371 0.081595644 0.68769234
0.26743484 0.081387497 0.68814999
0.27261338 0.081319883 0.68850005
0.27700236 0.081229106 0.68659097
0.28305283 0.081994943 0.68625003
0.28747475 0.081537113 0.68656522
0.29270458 0.081351727 0.68748003
0.29785061 0.081923053 0.68592322
0.30218861 0.081950508 0.6856876
0.30726725 0.081658125 0.68703449
0.31305349 0.081974514 0.68777144
0.31756049 0.082496397 0.68612522
0.32219157 0.082414806 0.68594134
0.32698801 0.081500031 0.68810529
0.35286391 0.080688812 0.68900001
0.3898949 0.080688812 0.68900001
0.39266181 0.080586344 0.68812507
0.39766705 0.080571704 0.68800002
0.40294239 0.080925941 0.68690479
0.40688226 0.083148636 0.68683338
0.4103553 0.084921971 0.68800002
0.20764427 0.085045397 0.68899995
0.22761196 0.085045397 0.68900001
0.31834033 0.085487969 0.68866664
0.32236779 0.085408449 0.68900001
0.41204742 0.085889041 0.68800002
0.37955979 0.039510366 0.69266671
0.3831459 0.039316386 0.69211107
0.38678294 0.03920009 0.69271427
0.40185034 0.039210588 0.69166666
0.40544853 0.03801382 0.69200003
-0.022367518 0.044203386 0.69300002
-0.017938456 0.044705991 0.69400001
-0.00065961515 0.044018127 0.69325006
0.0024231076 0.04378581 0.69170588
0.0070092976 0.044205938 0.69000006
0.016825851 0.044205938 0.69000006
0.024774933 0.044577155 0.69200003
0.025504192 0.044577155 0.69200003
0.03220094 0.043548997 0.69200015
0.037415173 0.043961182 0.69176477
0.042659737 0.044227581 0.6911
0.046156213 0.044077083 0.6927501
0.050444394 0.044705991 0.69400001
0.063825063 0.044391602 0.69337499
0.065731734 0.044109151 0.69325
0.083288856 0.043822259 0.69231254
0.08713793 0.044084329 0.69266671
0.092560872 0.044304021 0.69299996
0.097323671 0.044267591 0.69330782
0.10230803 0.044312704 0.69357139
0.1070222 0.044410761 0.69354552
0.11261062 0.044705991 0.69399995
0.13362651 0.04424303 0.69300002
0.13715993 0.044016797 0.69313335
0.14076826 0.044705991 0.69400001
0.14991036 0.044705991 0.69400001
0.15275458 0.044462204 0.69400001
0.1570673 0.044288069 0.69400012
0.16051519 0.044705991 0.69400001
0.1689259 0.044288069 0.69399995
0.17254876 0.043687068 0.69316018
0.17725052 0.043828279 0.69327277
0.18287727 0.043955147 0.69255006
0.18745267 0.042845208 0.69163162
0.19240157 0.04285166 0.69223076
0.19739182 0.043314207 0.69320017
0.20242292 0.043614462 0.69340003
0.20774448 0.043714944 0.69360006
0.21275985 0.0429888 0.69271439
0.21737999 0.042327657 0.69102246
0.22213499 0.041205131 0.69138104
0.22755624 0.041346733 0.69146156
0.2328445 0.042352293 0.69141185
0.23749772 0.04311464 0.69196427
0.24231672 0.043655179 0.69263643
0.2474288 0.043943927 0.69295001
0.25273535 0.043383881 0.69225001
0.25711033 0.042303123 0.69120008
0.26255581 0.041378394 0.69187504
0.26795417 0.042172734 0.69076949
0.27248013 0.042648096 0.69163632
0.27690035 0.04228181 0.69097072
0.28245974 0.041014925 0.69180006
0.28752893 0.042848546 0.69102871
0.29273346 0.042380232 0.69114304
0.29693466 0.041884929 0.69075882
0.30224219 0.041189682 0.69146675
0.30787784 0.042390298 0.69078976
0.31265682 0.042307377 0.69069415
0.31758356 0.042207912 0.69105577
0.32233849 0.042785343 0.69151711
0.32739079 0.04295605 0.6911484
0.33227733 0.043387681 0.69242865
0.33717579 0.04459231 0.69385713
0.34256348 0.044697937 0.69387507
0.34749439 0.044308104 0.6935001
0.35290274 0.043649834 0.69300002
0.35751787 0.042745862 0.69131404
0.36250663 0.042555969 0.69115168
0.36747423 0.043299634 0.69199997
0.37261087 0.043171119 0.69188905
0.37667674 0.042063523 0.69103044
0.38293445 0.042088058 0.69023561
0.38753587 0.042422373 0.69155556
0.39229709 0.043264788 0.69310725
0.39753652 0.042900048 0.69148844
0.40030363 0.040581543 0.69225001
-0.097313732 0.047853027 0.6919319
-0.093225934 0.048836783 0.69380963
-0.087540247 0.049520824 0.69400007
-0.082569078 0.048935201 0.69400018
-0.079738997 0.04982556 0.69400001
-0.067660443 0.047060356 0.69375873
-0.040454119 0.047735937 0.69399995
-0.038270462 0.047997147 0.69400012
-0.030006016 0.04982556 0.69400001
-0.026936844 0.048522629 0.69356531
-0.022659257 0.047561277 0.69297987
-0.017535351 0.047528669 0.69251031
-0.01249975 0.047737192 0.69195467
-0.0071999636 0.047992058 0.69228947
-0.0021147225 0.047670316 0.6925
0.0025264055 0.047399003 0.69061917
0.0069455127 0.047624815 0.69000036
0.012895768 0.048499603 0.69000024
0.017422309 0.047496747 0.69135422
0.022785541 0.047531292 0.69336861
0.02761749 0.047594454 0.69136965
0.032382198 0.046865571 0.69029748
0.03746143 0.045881692 0.69026333
0.042336766 0.045599651 0.69000006
0.047681332 0.045320906 0.69000006
0.052412432 0.04757202 0.69167441
0.057796866 0.048285283 0.69320017
0.062834077 0.047599703 0.6935308
0.067278355 0.047944263 0.6932354
0.07092268 0.049337983 0.69400001
0.079150565 0.049642719 0.69400001
0.082507163 0.047538329 0.69264585
0.087284587 0.047381427 0.69036758
0.092514835 0.047451772 0.69138777
0.097576015 0.047500294 0.69143748
0.10274151 0.047446933 0.69195998
0.10753784 0.04732693 0.69075572
0.11244467 0.047379822 0.69109315
0.11717771 0.047932561 0.69294888
0.12258567 0.049449347 0.69346154
0.12783526 0.048988797 0.6934545
0.13270374 0.047594495 0.69368911
0.13736793 0.047639985 0.69297898
0.14215198 0.047140736 0.69375694
0.14825259 0.046266247 0.69400012
0.15298112 0.047075786 0.69367582
0.15753958 0.047671273 0.69288027
0.16236703 0.047776893 0.69360548
0.16770695 0.04785905 0.69353354
0.17220463 0.047470417 0.69210637
0.1773816 0.047500286 0.69150925
0.18254177 0.047281813 0.69093621
0.18753974 0.047522549 0.69213945
0.19252031 0.047599126 0.69247073
0.19745174 0.047455769 0.69144905
0.20266058 0.04748119 0.69181627
0.2074818 0.047555253 0.69170439
0.21241839 0.047304131 0.69150007
0.21597549 0.045909174 0.69010007
0.23886538 0.047198854 0.6900003
0.24264921 0.04734477 0.69079548
0.2474125 0.047448516 0.69068766
0.25123706 0.047007423 0.69021457
0.2690264 0.046110388 0.69000006
0.27267933 0.046574634 0.69093555
0.27632698 0.046409678 0.69033349
0.2883479 0.046006508 0.69000012
0.2925449 0.046927519 0.69037521
0.29649657 0.047033746 0.6900003
0.30920157 0.045357265 0.69000006
0.31215212 0.04567888 0.69000012
0.32428998 0.049174808 0.69000006
0.32777581 0.047909446 0.69033349
0.33250126 0.047610879 0.69093478
0.3374742 0.046611823 0.69178146
0.34239301 0.046098094 0.69120008
0.34760144 0.047079552 0.69082874
0.3524633 0.047394637 0.6911732
0.35757157 0.047350179 0.69029099
0.36270076 0.04782616 0.69009119
0.36751869 0.047334071 0.69078737
0.37259766 0.047444649 0.69126081
0.37729341 0.047512554 0.69058841
0.38240287 0.047338571 0.69016701
0.38757315 0.047533248 0.69040841
0.39210504 0.046677165 0.69037515
0.39664158 0.045539048 0.69000006
-0.1063307 0.054399263 0.69016671
-0.1022102 0.053172786 0.69054556
-0.097676493 0.05256534 0.69155097
-0.092930429 0.052567665 0.69326109
-0.087851144 0.051711932 0.69393116
-0.082825363 0.051513549 0.69388008
-0.079738997 0.050922614 0.69400001
-0.040610842 0.054579452 0.69400001
-0.037201088 0.053126603 0.69400018
-0.032123134 0.052269869 0.69400018
-0.027444934 0.052615743 0.69244188
-0.02264617 0.052647304 0.69263273
-0.017316097 0.051461879 0.69345838
-0.012407721 0.052554373 0.69138789
-0.007381083 0.052445833 0.69119143
-0.0022069511 0.052560356 0.69148988
0.0022828958 0.052572593 0.69005591
0.0072535938 0.052458063 0.69014311
0.012368544 0.052560594 0.69146949
0.016890181 0.052121248 0.69290638
0.02824405 0.052453998 0.69286847
0.031376887 0.052991211 0.69045013
0.048941731 0.054143686 0.69000006
0.052618932 0.052615497 0.69068199
0.057554387 0.052670214 0.69172335
0.062763311 0.052675344 0.69343495
0.067435473 0.052773032 0.69318193
0.072300352 0.05282104 0.69333345
0.077534392 0.052702159 0.6924082
0.082336836 0.052429732 0.69080865
0.087359995 0.052520979 0.69095933
0.092434682 0.052506983 0.69079614
0.097505212 0.052492708 0.69061238
0.10263596 0.052510932 0.69085735
0.10760806 0.052451532 0.69006151
0.11252773 0.052510209 0.69020033
0.11765397 0.05188686 0.69085723
0.12258462 0.052455366 0.69139999
0.12762697 0.052609459 0.6921429
0.13253264 0.052674036 0.6930002
0.13706456 0.052432243 0.69400018
0.14040259 0.050556932 0.69400001
0.15429856 0.050922614 0.69400001
0.15764897 0.052485533 0.69285733
0.16242205 0.052598938 0.69141656
0.16746721 0.052495826 0.69124025
0.17245086 0.052598327 0.69200003
0.17740923 0.05264787 0.69348907
0.18242899 0.052627824 0.69345468
0.18705411 0.052997429 0.69380975
0.19282 0.052782424 0.69324511
0.19745387 0.052569624 0.69105875
0.20218478 0.051761087 0.69055891
0.20669909 0.050733 0.69000012
0.21085425 0.050265539 0.69000006
0.23969795 0.050507922 0.69000006
0.24266714 0.050901797 0.69000018
0.24706645 0.050701831 0.69000018
0.25048405 0.050265539 0.69000006
0.31483701 0.054264877 0.69000006
0.31790775 0.053533882 0.69068432
0.32272211 0.052843302 0.69176203
0.32752961 0.05268959 0.69193465
0.33241463 0.052547917 0.6913209
0.33706105 0.054203607 0.69037509
0.34253988 0.054172304 0.69014293
0.34777126 0.05271082 0.69035023
0.35259482 0.052514303 0.69031405
0.35769117 0.052492198 0.69002032
0.36270365 0.052480828 0.69045258
0.36775294 0.052579124 0.69173801
0.37254286 0.052517235 0.69256079
0.37769979 0.052689884 0.69300026
0.38244525 0.05261904 0.69204259
0.38746849 0.052590162 0.69152737
0.39236417 0.052633975 0.69025028
0.39768541 0.052423533 0.69000036
0.40064093 0.052083418 0.69000006
-0.12125197 0.058883216 0.69300002
-0.11765729 0.0584751 0.69205016
-0.11260501 0.057535082 0.69215006
-0.10723544 0.056850214 0.69268763
-0.10228065 0.057717878 0.69276762
-0.097443677 0.057716433 0.69285733
-0.093875632 0.057198953 0.69378954
-0.050484303 0.059333339 0.69400001
-0.049021564 0.058810931 0.69399995
-0.04188345 0.057586055 0.69387513
-0.038444806 0.057198297 0.69390923
-0.030522095 0.058694094 0.69385719
-0.027502973 0.057825793 0.69247729
-0.022645697 0.057754833 0.69261229
-0.019344879 0.059007529 0.69385719
-0.012125888 0.057331223 0.69386131
-0.0074843182 0.057934135 0.69282246
-0.0022075879 0.057700455 0.69195908
0.0025294456 0.057648711 0.69133329
0.0072555402 0.057571426 0.69040835
0.012230882 0.057724249 0.69169581
0.028591158 0.057368517 0.69360727
0.032806691 0.057599738 0.69129175
0.035610612 0.058506597 0.69000006
0.042154979 0.058264211 0.69000006
0.048051324 0.05689089 0.69018209
0.052442852 0.057492372 0.69100004
0.057562899 0.05679277 0.69033349
0.062645026 0.057635546 0.69160473
0.067575581 0.057921544 0.69343197
0.07205236 0.057059448 0.69100016
0.077646919 0.056290518 0.69000024
0.08311788 0.0554768 0.69000006
0.087665953 0.057404775 0.6909048
0.092567816 0.05743352 0.69106668
0.097081147 0.057526138 0.69011462
0.10284338 0.057468634 0.69005036
0.10754814 0.057492089 0.6905871
0.11251583 0.05761008 0.69085735
0.1175505 0.05788454 0.69053668
0.12237491 0.057642739 0.69209528
0.12734792 0.057045937 0.69339406
0.13260941 0.057421498 0.69372243
0.13661277 0.058103312 0.69400018
0.14844763 0.059333336 0.69400001
0.15288518 0.05933094 0.69352645
0.15764543 0.057857517 0.69277555
0.16234533 0.05761278 0.69089806
0.1671797 0.057506759 0.69000036
0.17240831 0.057190765 0.69044763
0.17749441 0.056953426 0.69176483
0.18264909 0.057533637 0.69177294
0.18754305 0.057664152 0.69137275
0.19264312 0.056743335 0.69050026
0.19663964 0.057066318 0.69004375
0.30792904 0.058523912 0.69000036
0.31260449 0.05776003 0.69012231
0.31736428 0.057118841 0.69100016
0.32268217 0.057168067 0.69187182
0.32739159 0.057508096 0.69145453
0.33237246 0.057638124 0.69220442
0.3375861 0.057806809 0.69256639
0.3426044 0.057707265 0.69185996
0.34740064 0.057692375 0.69185704
0.35223022 0.057657376 0.6916039
0.35754582 0.057511281 0.69139236
0.36236089 0.057663541 0.69111103
0.36743274 0.057443973 0.69237143
0.37241584 0.057367396 0.69361299
0.37766108 0.057839938 0.69320369
0.38243997 0.057692733 0.69154012
0.38749817 0.057497423 0.69078583
0.39158598 0.057001401 0.69003731
-0.12088682 0.062899411 0.69300002
-0.11860755 0.06384825 0.69211775
-0.1056294 0.062917039 0.69400007
-0.10254994 0.062531404 0.69279552
-0.097660072 0.062830947 0.69174987
-0.093149528 0.062631249 0.69311917
-0.050878115 0.061977509 0.69400012
-0.049570087 0.061618861 0.69400001
-0.041585997 0.060186598 0.69400001
-0.039513789 0.060430389 0.69400001
-0.031886093 0.062643081 0.69326937
-0.027716259 0.062681332 0.69161689
-0.022664266 0.062550023 0.69316685
-0.018649016 0.061830055 0.6938262
-0.011374778 0.062229127 0.69290334
-0.0073838765 0.061548259 0.69076943
-0.002160331 0.062734291 0.69168741
0.0025318384 0.062798128 0.69188076
0.0072610723 0.062718578 0.6910001
0.012155715 0.062516309 0.6901741
0.015926233 0.062912747 0.69273686
0.029342303 0.062634103 0.69366682
0.032725584 0.062700868 0.69146019
0.037573487 0.06285736 0.69032532
0.041648798 0.063477591 0.69042331
0.045063585 0.064808577 0.69000006
0.064151332 0.060627453 0.69000006
0.068035878 0.061364952 0.69068199
0.070804775 0.061027389 0.69000006
0.084178567 0.064286694 0.69025004
0.087288991 0.062506855 0.69218761
0.09284658 0.06041944 0.69387507
0.097536385 0.062444869 0.69257152
0.10271639 0.062682845 0.6916042
0.10753497 0.062802374 0.69192845
0.11244136 0.062530793 0.69295257
0.11753096 0.062591359 0.69234079
0.12227358 0.062765554 0.69246501
0.12594733 0.062861115 0.69400012
0.13413373 0.060796075 0.69399995
0.1372758 0.061404962 0.69390643
0.14464451 0.063575268 0.69400001
0.14774418 0.062446896 0.69303787
0.15244649 0.062744193 0.6918084
0.15757529 0.062682323 0.69275582
0.16261505 0.062749945 0.69185418
0.16725445 0.062638208 0.69012272
0.17046425 0.062296603 0.69000006
0.1828972 0.062836789 0.69084865
0.18748885 0.06246407 0.69184077
0.19253872 0.062497009 0.69171071
0.19771025 0.062562652 0.69148946
0.20150366 0.063986003 0.69035304
0.20811875 0.063596666 0.69000024
0.21216999 0.062956072 0.69000041
0.21521716 0.06408143 0.69000006
0.30800179 0.060663808 0.69000006
0.31132242 0.060688049 0.69000006
0.3287282 0.062220033 0.69015807
0.33260542 0.062780418 0.69085115
0.33736372 0.062385619 0.69087821
0.34259686 0.062649772 0.69133335
0.34747237 0.062808648 0.69199985
0.35226786 0.062738612 0.69096696
0.35754129 0.061742742 0.69057161
0.36259407 0.062547609 0.69126481
0.3672781 0.062848158 0.69314295
0.37275213 0.06350565 0.69234294
0.37650725 0.061150458 0.69165397
0.38064426 0.060445666 0.69000006
0.38807163 0.060913127 0.69000012
0.39094558 0.060930435 0.69000006
-0.12160251 0.066857517 0.69272727
-0.1188669 0.066426896 0.6927858
-0.10593917 0.067722552 0.69400012
-0.10246255 0.067599185 0.69304782
-0.097581029 0.067538485 0.69312823
-0.093284294 0.066045068 0.69343758
-0.05077685 0.065769367 0.69400001
-0.047200799 0.067966677 0.69369233
-0.042650823 0.068541892 0.69364005
-0.036056422 0.067843787 0.69400007
-0.032269422 0.067403674 0.69387197
-0.027670199 0.067462958 0.69307166
-0.023812436 0.066840455 0.69379181
-0.015622458 0.069328688 0.69400001
-0.012070573 0.067829132 0.6922729
-0.0012596167 0.0673564 0.6910001
0.0023924531 0.067494698 0.69290924
0.0074308044 0.067538276 0.69197559
0.012306626 0.067723006 0.690521
0.017116738 0.067801327 0.69320011
0.022632141 0.068492584 0.69213891
0.027732482 0.067375951 0.6930216
0.032823324 0.067717634 0.69095749
0.037391823 0.067632474 0.69084632
0.042323798 0.067624487 0.6927619
0.047289114 0.067782126 0.6906597
0.052138578 0.068287104 0.69000036
0.057883006 0.068228878 0.6900003
0.060333777 0.068444341 0.69000006
0.083934255 0.06789498 0.69033343
0.087461531 0.067494743 0.69276094
0.092571065 0.06791877 0.69368762
0.097136199 0.066876225 0.69384629
0.10238162 0.067342035 0.69314605
0.10744095 0.067691647 0.69259006
0.1125019 0.067312472 0.69332683
0.11749714 0.067551002 0.69254923
0.12250823 0.067765087 0.69166672
0.12750725 0.067454852 0.69172561
0.1320906 0.068104602 0.69306076
0.13743649 0.068963006 0.69400012
0.14279602 0.067761563 0.69351304
0.14737062 0.067407422 0.69282633
0.15240228 0.067631677 0.69165897
0.15754144 0.067680471 0.69094735
0.16204511 0.067238137 0.69054067
0.16649798 0.065778114 0.69000006
0.17958672 0.067280903 0.69000006
0.18244663 0.067873046 0.69075006
0.18739305 0.067459829 0.69251126
0.19236708 0.067653932 0.69336605
0.19754075 0.067617275 0.69252652
0.20229535 0.067773417 0.69057167
0.20747006 0.067799754 0.69083685
0.21192849 0.0675295 0.69012535
0.24372153 0.069607779 0.69000006
0.24668303 0.069568127 0.69000006
0.32938004 0.067717187 0.69000006
0.33219576 0.067732655 0.69000041
0.3370482 0.069303706 0.69000006
0.34257135 0.067908302 0.69020611
0.3474018 0.067923412 0.69131911
0.35179487 0.067644194 0.69057798
0.36756656 0.065843329 0.69045454
0.37046412 0.065535732 0.69000006
-0.11165873 0.073692173 0.69338888
-0.10725924 0.072458722 0.69274491
-0.10220304 0.072350316 0.6925922
-0.097985394 0.072706483 0.69373548
-0.072379611 0.074189231 0.69400012
-0.068914756 0.074253239 0.69400001
-0.061546233 0.074234948 0.69400001
-0.058412589 0.074154273 0.69385725
-0.046278309 0.072580092 0.69386971
-0.042402469 0.072436757 0.69340837
-0.039181352 0.072431467 0.69400007
-0.030737385 0.07030385 0.69400001
-0.027185027 0.070408337 0.69399995
-0.021820262 0.073084883 0.6939525
-0.0174073 0.072660752 0.69334102
-0.013036069 0.072332785 0.69129735
-0.0051099029 0.074988708 0.69000006
-0.0015724979 0.072923355 0.69110006
0.0021940048 0.072684683 0.69332373
0.0075246668 0.0725426 0.69292873
0.012408455 0.072479799 0.69090706
0.017243687 0.072524481 0.69120002
0.022522846 0.072705708 0.69047928
0.027693119 0.072290182 0.69202042
0.032625403 0.072466247 0.69125587
0.03762893 0.07247062 0.69212818
0.04197865 0.072021492 0.69195247
0.047534544 0.071995623 0.69019061
0.051228575 0.072554328 0.6900003
0.068623319 0.074552417 0.69000006
0.072945125 0.074075706 0.69030005
0.078060292 0.074006923 0.69009095
0.082753025 0.0727925 0.69127607
0.087532841 0.071507655 0.69290006
0.09205924 0.071239412 0.69373691
0.10310284 0.07030385 0.69400001
0.10852205 0.072184339 0.69394755
0.11250199 0.072512642 0.69187278
0.11691391 0.071235046 0.69062513
0.1221417 0.070625797 0.69000006
0.12904966 0.070625797 0.69000006
0.13297392 0.072273232 0.69072998
0.13749708 0.072292715 0.69284111
0.14242907 0.072412632 0.69318396
0.14758997 0.072435945 0.69340837
0.15237781 0.072411105 0.69227648
0.15748125 0.072484136 0.69106668
0.16227224 0.072719336 0.69050008
0.16636164 0.074034326 0.69000018
0.17328472 0.074867517 0.69000006
0.17787018 0.073589481 0.69019073
0.18262476 0.072466239 0.69090003
0.18749264 0.072395161 0.69119042
0.19237776 0.072567791 0.69050002
0.19772434 0.072769783 0.69006026
0.20249198 0.072807252 0.69000041
0.20724291 0.072815634 0.69008195
0.21139371 0.072760344 0.69000036
0.24379423 0.071643814 0.69000006
0.24725729 0.072761796 0.69000036
0.25036284 0.073897988 0.69000006
0.32938004 0.074625134 0.69000006
0.33232242 0.072662577 0.69007015
0.33742753 0.072469495 0.6907028
0.34237456 0.072611824 0.69117069
0.34744611 0.072717942 0.69037294
0.35213441 0.072973438 0.69002539
0.36610124 0.074988708 0.69000006
0.39743143 0.073208444 0.69000036
-0.1212109 0.079473078 0.69360006
-0.11710168 0.078080699 0.69258833
-0.11248245 0.077245921 0.69143194
-0.10744902 0.077385433 0.69143409
-0.10222108 0.077444427 0.69232011
-0.097603232 0.077575006 0.69361925
-0.076827548 0.078148544 0.69348401
-0.072350718 0.077536918 0.69328606
-0.067422107 0.07773231 0.69389153
-0.062479287 0.077635296 0.69368309
-0.057665661 0.077438444 0.69240826
-0.05255612 0.077578284 0.6923914
-0.047724631 0.077364281 0.69352299
-0.042380754 0.076388836 0.69400018
-0.037428133 0.077852353 0.69397521
-0.032969367 0.07895197 0.69394457
-0.026811237 0.07926926 0.69390923
-0.022491926 0.077685893 0.69331127
-0.017527189 0.077414036 0.69218367
-0.012559425 0.07757806 0.69156808
-0.0071266359 0.077964492 0.69058841
-0.0021613457 0.07742317 0.69185406
0.0024560555 0.077185467 0.69112504
0.0074141775 0.077076621 0.69125009
0.012357504 0.077271961 0.69091845
0.017534105 0.077502109 0.69075006
0.022626959 0.077551104 0.69118184
0.027694661 0.077399433 0.69204104
0.032827139 0.077467047 0.69265318
0.037597463 0.077231534 0.69100004
0.040366065 0.075406626 0.69050002
0.047923964 0.077914946 0.6903795
0.051972315 0.077698149 0.69067585
0.055970866 0.078988038 0.69000006
0.069052711 0.07713522 0.69061917
0.072586343 0.077327631 0.69186038
0.077346414 0.077490292 0.69202131
0.08096119 0.077030189 0.69353336
0.10398573 0.078713216 0.69318753
0.10752315 0.07730151 0.69176102
0.11145697 0.076036669 0.69058836
0.12321576 0.078833237 0.69009095
0.12701814 0.078822628 0.6902355
0.13288262 0.078077741 0.69021457
0.1375578 0.077321865 0.69095826
0.14255379 0.077380992 0.69147837
0.14756477 0.077344887 0.69158036
0.15247995 0.077262409 0.69097883
0.15752101 0.07727991 0.69168073
0.16252758 0.077357493 0.69167346
0.16731472 0.077540345 0.69058156
0.17251241 0.07767313 0.69042528
0.1774745 0.077436268 0.69139993
0.18240294 0.077439681 0.69240832
0.1873436 0.077371061 0.69179589
0.19166629 0.077269912 0.69018954
0.19776551 0.075715862 0.69000006
0.20312348 0.076825731 0.69000024
0.20721853 0.077533737 0.69000041
0.21158139 0.077533737 0.69000036
0.22733636 0.078382082 0.69000006
0.24783513 0.075923622 0.69000006
0.32897604 0.076846987 0.69000006
0.33258566 0.077453732 0.69072104
0.33762124 0.077340923 0.69168168
0.34256446 0.077339508 0.69177991
0.34720793 0.077337764 0.69035316
0.35131583 0.075958245 0.69000006
0.3589336 0.078416705 0.69000012
0.36279747 0.077721067 0.69065535
0.36754933 0.077739753 0.69135696
0.37094259 0.078761466 0.69066668
0.38391647 0.079351619 0.69000006
0.38573432 0.079351619 0.69000006
-0.12064916 0.080592655 0.6923334
-0.11709332 0.081160344 0.69113052
-0.11294131 0.081684023 0.69250011
-0.10751273 0.080745637 0.6934545
-0.10241139 0.080908678 0.69400012
-0.096999265 0.081274368 0.69400012
-0.094366342 0.082371414 0.69400001
-0.081758909 0.083468713 0.69376016
-0.077419572 0.082603939 0.69287771
-0.072542958 0.082192473 0.69351304
-0.067652799 0.081562281 0.69396019
-0.061808515 0.081989855 0.69386381
-0.057619534 0.082479298 0.69183677
-0.052459158 0.082393967 0.69112253
-0.049164128 0.082558937 0.69358832
-0.03628974 0.082511455 0.69358629
-0.032214198 0.082642406 0.69333357
-0.027483094 0.082684807 0.69341892
-0.022694165 0.082530968 0.69264585
-0.017486649 0.082318924 0.69256836
-0.012424937 0.082548484 0.69240826
-0.00730995 0.082473256 0.69177568
-0.0022084992 0.082529493 0.69224501
0.0020221854 0.08257287 0.69064534
0.0082696946 0.08269652 0.69000006
0.012862757 0.082421087 0.69051373
0.017305898 0.082153633 0.69185716
0.022645047 0.082280286 0.69272095
0.027758207 0.082696289 0.69365329
0.032776706 0.08252085 0.69256264
0.037637334 0.082443021 0.69087243
0.042360686 0.083981395 0.69020003
0.047324017 0.082331829 0.69018215
0.052371211 0.082323767 0.69171739
0.057437483 0.082497701 0.69181097
0.062713571 0.083781496 0.69109094
0.067845747 0.082782954 0.69147378
0.072478198 0.082149848 0.6930294
0.077609636 0.082333431 0.69338113
0.081421562 0.08278323 0.69387513
0.098653682 0.08395604 0.69400007
0.10265624 0.082678691 0.69258511
0.10711356 0.082651071 0.6903891
0.11259606 0.084106639 0.69046158
0.11795107 0.083391987 0.69083351
0.12252699 0.082503326 0.6916222
0.12747397 0.082425676 0.69243491
0.13252416 0.082237832 0.69263428
0.13759178 0.082195535 0.69188887
0.14266436 0.082263179 0.69078737
0.14725447 0.082470492 0.69041491
0.15329863 0.082921781 0.69054568
0.15749815 0.082152806 0.69172978
0.16260517 0.082177848 0.69186044
0.16739927 0.082419299 0.69096017
0.17250386 0.082324132 0.69132608
0.17741305 0.082505979 0.69165951
0.18242846 0.082538553 0.69232595
0.18727906 0.082461841 0.69206238
0.19206966 0.082440391 0.69075632
0.1972529 0.08435744 0.69050002
0.20176485 0.084441684 0.69000006
0.20757326 0.082189277 0.69000041
0.21162544 0.082392432 0.69000036
0.21772882 0.083869725 0.69027793
0.22243887 0.083822519 0.69022244
0.22539729 0.084441684 0.69000006
0.23381852 0.083958 0.69125003
0.23750739 0.083472252 0.69160002
0.24224189 0.084370472 0.6918
0.24789354 0.084159851 0.69100004
0.25222412 0.083672091 0.69178581
0.2574034 0.083333798 0.69114292
0.26224062 0.083987519 0.69225001
0.26766428 0.083900951 0.69152641
0.272315 0.083862327 0.69184214
0.27708995 0.083423175 0.6918
0.2815505 0.083035491 0.6904
0.2874085 0.084093675 0.69312513
0.29279548 0.083629921 0.69170004
0.29757351 0.083994217 0.69230002
0.3077631 0.084269606 0.69114286
0.31228468 0.084339462 0.69171429
0.32847986 0.083492495 0.6911667
0.33244768 0.081330255 0.69055581
0.3373886 0.08121632 0.69039309
0.34240693 0.081250697 0.69108695
0.34723574 0.081380747 0.69166684
0.35215589 0.081589535 0.69162506
0.35761952 0.081105739 0.6910001
0.36266693 0.081358038 0.6923334
0.36722207 0.081334643 0.69352633
0.37225938 0.080688886 0.69250011
0.37752622 0.081230447 0.69362497
0.38231808 0.080641396 0.69146156
0.38754389 0.081298366 0.69175011
0.39263055 0.082172327 0.69141185
0.39736271 0.082331985 0.69161123
0.40245035 0.082351647 0.69144446
0.40768743 0.083638348 0.691625
0.41027713 0.084931195 0.69400001
-0.081658833 0.085936837 0.69400001
-0.078276262 0.085662566 0.69400001
-0.057326179 0.086026303 0.69300002
-0.052781932 0.086173534 0.69284219
-0.049509142 0.085906357 0.69400001
-0.035491273 0.085662566 0.69400001
-0.032931484 0.085662566 0.69400001
-0.010259097 0.085662566 0.69400001
-0.0073336279 0.085662559 0.69399995
-0.0023359503 0.085662566 0.69400001
0.002535641 0.085559703 0.69316673
0.0072686481 0.085362807 0.69157141
0.011666358 0.08553914 0.69300002
0.029600425 0.085662566 0.69400001
0.032787099 0.085767046 0.69399995
0.037811819 0.086311355 0.69333339
0.042231672 0.08654429 0.69259268
0.047001865 0.086017706 0.69243753
0.051175762 0.085662566 0.69400001
0.062511951 0.085662566 0.69400001
0.065071739 0.085662566 0.69400001
0.099446014 0.085662566 0.69400001
0.10228658 0.085592031 0.69342858
0.10733616 0.08553914 0.69299996
0.1125188 0.085592031 0.69342858
0.11763237 0.085592031 0.69342858
0.12166553 0.085600846 0.69350004
0.14750279 0.08553914 0.69299996
0.15130074 0.085621417 0.6936667
0.1689259 0.085662566 0.69400001
0.17175296 0.085613199 0.6936
0.17892127 0.085662566 0.69400001
0.18172483 0.085662566 0.69400001
0.20259583 0.085636035 0.69259995
0.20719282 0.085819595 0.69133335
0.21236438 0.08561679 0.69116664
0.21709003 0.085660264 0.6925
0.22299597 0.086047806 0.69233346
0.22731838 0.086098291 0.69078571
0.2316484 0.085781887 0.69259995
0.24608517 0.085662566 0.69400001
0.31479108 0.085353985 0.69150007
0.31731838 0.085869543 0.69124997
0.32346019 0.086061977 0.69133335
0.32501712 0.085168839 0.69000006
0.4124527 0.085943371 0.6923334
0.41539669 0.087125301 0.69400001
0.19238031 0.039824095 0.69816667
0.19592524 0.039871626 0.69900006
0.21434116 0.039871626 0.69900006
0.21719813 0.039855331 0.69871432
0.22244418 0.039871629 0.699
0.22686401 0.039871626 0.69900006
0.27253544 0.039871626 0.69900006
0.27763471 0.039863478 0.69885719
0.28227875 0.039843109 0.6985001
0.29979104 0.039871626 0.69900006
0.30273756 0.039871629 0.699
0.30605245 0.039871626 0.69900006
0.31240028 0.039789237 0.69755554
0.31741616 0.039627861 0.69657141
0.32129204 0.039843105 0.69850004
0.3594586 0.039871626 0.69900006
0.36203477 0.039830886 0.6982857
0.36535168 0.039871626 0.69900006
0.38379872 0.039173782 0.69750005
0.38889572 0.038911041 0.69500005
0.3918522 0.039573912 0.69700003
0.40439343 0.039871626 0.69900006
0.40683255 0.038683742 0.69749999
-0.095234744 0.044770412 0.69500005
-0.093865223 0.044739455 0.69680005
-0.070953205 0.044931456 0.69749999
-0.067996465 0.044920716 0.69733334
-0.037534788 0.044963662 0.69800001
-0.022545947 0.044163663 0.69700003
-0.017047755 0.044030402 0.69700003
-0.01250638 0.044163711 0.69700003
-0.0073724249 0.044206057 0.6976667
-0.0025609201 0.043673463 0.69638467
0.0021814622 0.042646654 0.69620007
0.033895817 0.042964123 0.69660008
0.035937473 0.043144155 0.69633341
0.046854977 0.043305568 0.69500005
0.052626621 0.044454191 0.69736362
0.057334054 0.044947557 0.69774997
0.063174129 0.043657858 0.69728571
0.068318807 0.04418188 0.69725007
0.070595875 0.044963662 0.69800001
0.078733854 0.044797942 0.6973334
0.081391029 0.043945201 0.69685715
0.087473974 0.043105584 0.69685715
0.09218917 0.043490581 0.69650006
0.097545676 0.04310938 0.69730771
0.1024661 0.043070931 0.69714278
0.10762306 0.043188378 0.69706666
0.11231698 0.043778896 0.69671434
0.11753859 0.044098321 0.69655007
0.12220545 0.044295672 0.6976251
0.12747981 0.044718117 0.69800001
0.13213134 0.043898314 0.69666672
0.13791829 0.042964231 0.69660008
0.14247318 0.044010166 0.6967501
0.14774694 0.044251122 0.69644445
0.15241137 0.04326535 0.69633335
0.15769447 0.043089919 0.69607693
0.16257572 0.04392707 0.69631588
0.16731305 0.043740883 0.69642115
0.17214811 0.042216711 0.69681823
0.17790522 0.042242374 0.69680005
0.18217084 0.042561073 0.69694138
0.18743917 0.04120677 0.69666672
0.19228715 0.040385567 0.69516677
0.19768687 0.041012309 0.69586676
0.2021873 0.041432779 0.69662505
0.2072711 0.041827504 0.69683337
0.21191083 0.040898435 0.69623083
0.21656565 0.040404931 0.69550008
0.22446714 0.040375885 0.69500005
0.22767097 0.040424298 0.69583344
0.23258598 0.041079123 0.69628578
0.23757669 0.041263636 0.69585717
0.24275281 0.041785058 0.69637501
0.2472003 0.042117398 0.69699997
0.25216949 0.041936561 0.69660002
0.2577953 0.041079033 0.69588894
0.26234108 0.040657364 0.69844449
0.26653281 0.040535644 0.69774997
0.27353936 0.040375885 0.69500005
0.27646905 0.040375885 0.69500005
0.28399765 0.040404931 0.69550002
0.28780976 0.040701333 0.69700003
0.29173735 0.040687107 0.6975556
0.30320242 0.040375885 0.69499999
0.30730605 0.040433977 0.69600004
0.31038332 0.040404931 0.69550002
0.32284239 0.040766187 0.69611114
0.32788125 0.041375749 0.69677776
0.33283937 0.04159873 0.69710004
0.33745807 0.042595536 0.69695669
0.34255046 0.043542378 0.69705009
0.34755313 0.043037158 0.69694114
0.35266894 0.042122848 0.69665003
0.35745889 0.040603809 0.69640005
0.36248681 0.040387504 0.69520009
0.36793408 0.041049384 0.69650006
0.37251285 0.04128436 0.69607699
0.37717727 0.040579908 0.69711113
0.39373535 0.0412363 0.69562513
0.3975496 0.041454833 0.69673336
0.40139818 0.040492073 0.69700003
-0.095234744 0.04550283 0.69500005
-0.09186317 0.04678205 0.69577408
-0.087523654 0.047059108 0.69638222
-0.082611226 0.046644952 0.69612497
-0.078142509 0.048502535 0.69710338
-0.071968243 0.047716755 0.69714278
-0.066676691 0.048279621 0.69544995
-0.062754527 0.047955927 0.69687498
-0.057161681 0.047661513 0.69726318
-0.052744042 0.047670547 0.69781822
-0.045875728 0.047974631 0.69900006
-0.042683855 0.047715247 0.69667548
-0.036778059 0.047297768 0.69535476
-0.032411151 0.047606722 0.69601965
-0.028117698 0.046637714 0.69584215
-0.011738722 0.04550283 0.69500005
-0.007567937 0.04574874 0.69540012
-0.0036820888 0.04550283 0.69499999
0.022318864 0.049897358 0.69500011
0.054382049 0.045702301 0.69525003
0.057396896 0.045869585 0.69613349
0.060038563 0.04550283 0.69500005
0.068969086 0.046176571 0.69550014
0.072742544 0.047484659 0.69611609
0.077435888 0.047405988 0.69585389
0.080546357 0.047700096 0.69500005
0.1188764 0.045991112 0.69500011
0.12257177 0.047005147 0.69620585
0.12734851 0.046722598 0.69603556
0.13053411 0.04605215 0.69500005
0.14395295 0.049104884 0.69509101
0.14738016 0.048320659 0.69541919
0.15140708 0.049190428 0.6953572
0.16433534 0.045942284 0.69500005
0.16599549 0.045991112 0.69500011
-0.09047401 0.054291889 0.69500005
-0.087385245 0.053977884 0.69530779
-0.082313403 0.053791296 0.69576478
-0.077232972 0.052424524 0.69699991
-0.072590597 0.051843453 0.69878781
-0.067353241 0.052013528 0.69762075
-0.062450234 0.052073829 0.69762158
-0.057316445 0.051759906 0.69848645
-0.052383725 0.052280735 0.69791305
-0.047544438 0.053030308 0.69769704
-0.042769499 0.052293383 0.69630235
-0.038179126 0.050995998 0.69500011
-0.032978941 0.054291889 0.69500005
-0.017935336 0.053675398 0.69544446
0.019166378 0.053254668 0.69536376
0.022722252 0.052547932 0.69614273
0.026029855 0.053251192 0.69522232
0.061503403 0.050629783 0.69500005
0.074320778 0.050995991 0.69500005
0.075419411 0.050629783 0.69500005
0.13934933 0.053664107 0.69500011
0.14264104 0.052569579 0.69574261
0.14757021 0.05259363 0.69676197
0.152492 0.052631013 0.69627488
0.15554628 0.053705953 0.69500005
0.17942321 0.053193256 0.69500005
0.18015563 0.053925678 0.69500005
0.18943298 0.051972557 0.69500011
0.19065368 0.051728416 0.69500011
-0.12343296 0.059418838 0.69500005
-0.11188198 0.05917057 0.69566673
-0.10790068 0.059121814 0.69533342
-0.091369517 0.057531051 0.69537914
-0.087458059 0.057407636 0.69724482
-0.082483731 0.057314459 0.69851208
-0.078037798 0.057134151 0.69883871
-0.071757711 0.058604099 0.69895661
-0.068151832 0.059175927 0.69892865
-0.062143121 0.05976082 0.69900006
-0.056500301 0.058412448 0.69850016
-0.052542552 0.057285 0.69643891
-0.047400888 0.056963474 0.6952616
-0.043920718 0.056543268 0.69506669
-0.036103223 0.057700202 0.69554543
-0.032635272 0.05707952 0.69565827
-0.017369688 0.057014998 0.69539511
-0.014424267 0.058564346 0.69500011
0.014628443 0.057221577 0.69499999
0.017561831 0.057353687 0.69697821
0.022949494 0.057211295 0.69750011
0.026136795 0.057491824 0.69550002
0.067728981 0.056855362 0.69500005
0.12831651 0.059093315 0.69500011
0.13108343 0.059418838 0.69499999
0.1385175 0.056818746 0.69499993
0.14265072 0.057189226 0.69531345
0.14755845 0.057010137 0.69564086
0.15234636 0.056701545 0.6959188
0.1555672 0.055965994 0.69500011
0.37278244 0.059418838 0.69500005
-0.12195356 0.061251685 0.69700009
-0.11700645 0.062027637 0.69582027
-0.11248849 0.062575929 0.69753081
-0.10794669 0.062226467 0.69593745
-0.090785913 0.061645236 0.69533336
-0.087341055 0.0624649 0.69630587
-0.082404457 0.062616482 0.69800001
-0.07735078 0.06261003 0.69843745
-0.072458148 0.062600702 0.69725579
-0.067582682 0.062513337 0.69685715
-0.062436949 0.062506936 0.69679582
-0.057466444 0.062337086 0.69581801
-0.053314384 0.062563933 0.69499987
-0.047260217 0.062508792 0.69538999
-0.042658526 0.062695272 0.69562763
-0.037300061 0.06246037 0.69538271
-0.033877391 0.061748665 0.69540006
-0.016520524 0.06284298 0.6952799
-0.013941157 0.062554523 0.69524997
0.018146966 0.062415048 0.69700009
0.023243405 0.063554808 0.69859993
0.026811058 0.062363345 0.69652772
0.089335419 0.063813366 0.69499999
0.092343725 0.062996365 0.69559437
0.095194779 0.063080944 0.69499999
0.12829071 0.061989658 0.69548374
0.1323057 0.062618315 0.6952855
0.13801987 0.063942619 0.69499999
0.14257838 0.062202934 0.69504523
0.14573185 0.060151257 0.69500005
0.36953887 0.061616097 0.69500011
0.37238577 0.061405849 0.69528568
-0.12524833 0.069337092 0.69900006
-0.12216473 0.069301307 0.69692302
-0.11710222 0.067965858 0.69697291
-0.11252927 0.067744538 0.6977756
-0.10825463 0.06730251 0.69563997
-0.095478892 0.069428593 0.69499999
-0.091984279 0.068177678 0.69599986
-0.087395392 0.067644604 0.69673479
-0.082341895 0.067715347 0.69746941
-0.077558182 0.067708202 0.69740492
-0.072666675 0.067601979 0.69630587
-0.067485936 0.06755887 0.69585675
-0.06234315 0.067549877 0.69575471
-0.057344053 0.067633159 0.69563013
-0.052799337 0.067601711 0.69534981
-0.048012339 0.066778958 0.69504339
-0.042279515 0.066259585 0.69537497
-0.037739668 0.067340553 0.69499987
-0.033857845 0.067914918 0.69500005
-0.021641059 0.067973495 0.69499993
-0.017733909 0.067381255 0.69534761
-0.01399874 0.066546999 0.69530773
0.0041304049 0.069428593 0.69499999
0.0051069665 0.069306523 0.69500005
0.019037006 0.066424154 0.69550014
0.022525972 0.06603267 0.69605267
0.025614761 0.065278202 0.69500005
0.089335419 0.065278202 0.69500005
0.091898896 0.065644421 0.69500011
0.097758248 0.069379762 0.69500011
0.10032173 0.069672734 0.69500005
0.1333853 0.065905988 0.69500005
0.13763972 0.066602878 0.69506651
0.14150716 0.065761372 0.69518191
0.19366474 0.066254765 0.69500011
0.19553649 0.066010632 0.69500005
-0.12127049 0.07213632 0.69900006
-0.11724972 0.07272438 0.69790238
-0.11301985 0.071767218 0.69608331
-0.10951696 0.070405155 0.69500005
-0.095799252 0.072085775 0.69520003
-0.092610314 0.072623774 0.69658685
-0.087348618 0.072547615 0.69635534
-0.082295217 0.072451219 0.69707167
-0.077412978 0.072715864 0.69609505
-0.072574474 0.071802832 0.69521195
-0.06726326 0.072449356 0.6954543
-0.062643379 0.072188161 0.69565761
-0.057049736 0.072051816 0.69577754
-0.052571502 0.0727778 0.69588608
-0.048784181 0.072561771 0.69542301
-0.036833782 0.072621703 0.69499987
-0.032361917 0.072791986 0.69543463
-0.02756308 0.0730877 0.69562829
-0.023378992 0.072157718 0.69499987
-0.018916452 0.070551641 0.69500005
0.0040083341 0.071503788 0.69500011
0.0052290368 0.071869999 0.69500011
0.084208466 0.074799687 0.69500005
0.087653041 0.073984824 0.69560009
0.092770778 0.073657803 0.6952799
0.09736681 0.07246238 0.69588608
0.10259429 0.072784565 0.69587797
0.10702229 0.072822414 0.69523323
-0.12557158 0.078148507 0.69875002
-0.12227049 0.077399708 0.69714272
-0.1186177 0.076091416 0.69600004
-0.095234744 0.077729367 0.69500011
-0.092454672 0.077418543 0.69649994
-0.08754047 0.077462666 0.69789141
-0.082529627 0.077229276 0.69724452
-0.078774028 0.076820314 0.69535297
-0.065449618 0.075776249 0.69499999
-0.064473055 0.075532109 0.69500005
-0.052754313 0.075532109 0.69499999
-0.045979418 0.079377316 0.69500005
-0.042397983 0.078794152 0.69521052
-0.036885187 0.076671422 0.69500011
-0.031810511 0.0769815 0.69529015
-0.027727382 0.077184834 0.69541925
-0.024739198 0.076081425 0.69500005
0.083153762 0.077916525 0.69612497
0.087588519 0.077401154 0.69822913
0.092364699 0.077430181 0.69613928
0.097477309 0.077458844 0.69717515
0.10190771 0.077060789 0.69663626
0.10544869 0.075898319 0.69500005
-0.11140349 0.083692744 0.69626671
-0.10754946 0.083288342 0.69696659
-0.10257718 0.083319083 0.69626927
-0.097756125 0.083538346 0.69540906
-0.092264444 0.082247347 0.69578248
-0.087538689 0.08229503 0.69712758
-0.083366431 0.081664987 0.69604164
-0.071431056 0.084321164 0.69500005
-0.066907994 0.083703384 0.69523531
-0.063606441 0.083214283 0.69513339
-0.046749506 0.082552254 0.69596428
-0.042701762 0.082454853 0.69700009
-0.038944095 0.082657367 0.69525003
0.01938918 0.084321164 0.69500005
0.055644032 0.084321164 0.69500005
0.07395456 0.084321164 0.69499999
0.075785622 0.084321164 0.69500005
0.083692417 0.081850074 0.69544446
0.087330103 0.082246453 0.69616652
0.092357293 0.08220613 0.69569355
0.097206697 0.081862204 0.69589984
0.10070151 0.080581784 0.69560003
0.15964785 0.084321164 0.69500005
0.16038027 0.084321164 0.69500005
0.23911557 0.084321164 0.69500005
0.25705987 0.084321164 0.69500005
0.27886704 0.084381826 0.69550002
0.28268287 0.084427327 0.69587505
0.2958782 0.084321164 0.69500005
0.33307296 0.084173784 0.69620001
0.33758625 0.083760552 0.6964286
0.34280312 0.083869368 0.69733334
0.34796393 0.08387439 0.697375
0.3529073 0.083464421 0.69625002
0.3572236 0.083114676 0.69628578
0.36239398 0.083310992 0.69650006
0.36768946 0.083749503 0.6967333
0.37230092 0.082905933 0.69709098
0.3776589 0.082549281 0.69859999
0.38211519 0.082399607 0.69733334
0.38704771 0.082834244 0.69657147
0.39177725 0.083735734 0.69622231
0.39951581 0.083588734 0.69500005
0.40289029 0.083757117 0.69640005
0.40729997 0.083931662 0.69683337
0.41028652 0.084806465 0.69900006
-0.11208579 0.085860454 0.69808334
-0.10756905 0.0857068 0.699
-0.10228427 0.086525254 0.69875008
-0.097332105 0.086706802 0.69772404
-0.092513748 0.086733043 0.69705874
-0.087498344 0.086771138 0.69648474
-0.082736783 0.087563731 0.69595653
-0.077593587 0.08761552 0.69648272
-0.072557166 0.086476706 0.69648278
-0.067675315 0.086140119 0.6968261
-0.062516049 0.086186081 0.69645
-0.057293132 0.087837934 0.69675004
-0.052068938 0.087879278 0.69562507
-0.047518615 0.086625405 0.69630778
-0.04268587 0.086529069 0.6980356
-0.037802696 0.086506471 0.6964348
-0.03225591 0.087290868 0.69663644
-0.027404258 0.086728416 0.6963684
-0.022572085 0.086634129 0.69676197
-0.017730324 0.086472198 0.69688469
-0.012432003 0.086878791 0.69654548
-0.0074699074 0.087397203 0.69645005
-0.0025287021 0.086899869 0.69658345
0.0025527335 0.08680889 0.69733334
0.0073150368 0.086660691 0.69614297
0.012859358 0.086493969 0.69611114
0.017807549 0.086137228 0.69721061
0.022865925 0.086214446 0.69665211
0.027243594 0.086950935 0.69640005
0.032119766 0.087134905 0.6967693
0.037121627 0.088021964 0.69674999
0.042805158 0.088767737 0.69612503
0.047703587 0.087832063 0.69669998
0.053098094 0.086111076 0.69654554
0.057463754 0.086025491 0.69693339
0.062119085 0.087057389 0.69721431
0.067387633 0.086322427 0.69663644
0.072473392 0.085571699 0.69646156
0.077253379 0.085665546 0.69630772
0.082789749 0.085616253 0.69600004
0.087541454 0.085815266 0.69821441
0.092712902 0.086064562 0.69755
0.097069331 0.086079314 0.69662505
0.10232979 0.086980805 0.69871426
0.10739405 0.086611785 0.69575012
0.11254156 0.086622171 0.69583338
0.11736228 0.086933382 0.69833344
0.12221842 0.086629115 0.69757146
0.12787864 0.085788041 0.69650006
0.13262929 0.085647352 0.69661534
0.13738587 0.085697174 0.69724995
0.14263186 0.085733637 0.69655561
0.14783165 0.086891882 0.69800001
0.15243362 0.086506404 0.69742858
0.15757306 0.085613705 0.6978572
0.1624078 0.085350789 0.69742858
0.16671591 0.086032867 0.69700003
0.17231479 0.086840607 0.69842863
0.17745435 0.086216271 0.69625008
0.18256715 0.086535476 0.69644451
0.18738441 0.086192854 0.69710004
0.19266133 0.085747927 0.69666672
0.19764903 0.086326487 0.69660002
0.20241688 0.086957611 0.69655561
0.20737062 0.087609537 0.6978572
0.21199359 0.087543778 0.69733334
0.2173962 0.087094784 0.69699997
0.22261795 0.087678902 0.6975714
0.22711197 0.088157326 0.69637507
0.23182422 0.0874708 0.69675004
0.23735967 0.085543148 0.69780004
0.24240954 0.08561942 0.69737506
0.24774766 0.086056769 0.6960001
0.25250867 0.085641526 0.69740003
0.25596115 0.085543096 0.69900006
0.26249623 0.085393526 0.69777781
0.26784536 0.085829698 0.69733334
0.27212292 0.086032867 0.69700003
0.27712515 0.085578583 0.69757146
0.28874147 0.085543096 0.69900006
0.29200569 0.08542072 0.69800001
0.29770261 0.085420713 0.69800007
0.3000977 0.085420713 0.69800001
0.31336641 0.085972175 0.69725007
0.31720746 0.086642906 0.69600004
0.32206842 0.087501928 0.69700003
0.32930923 0.085543223 0.69600004
0.33220303 0.085543096 0.69900006
0.41298333 0.08607436 0.69733334
0.41668704 0.08762747 0.69800007
0.19288003 0.039463397 0.7026667
0.19762641 0.039523963 0.70155567
0.20053597 0.039686318 0.70225
0.21327358 0.039947681 0.70033336
0.21765494 0.039414924 0.70400006
0.22255151 0.039414924 0.70400006
0.22723165 0.03954336 0.70300007
0.23046806 0.039985705 0.70100003
0.27403188 0.039928667 0.70000005
0.27788001 0.039517671 0.70320004
0.28241616 0.039382935 0.70342863
0.28615868 0.039814491 0.70125002
0.30267736 0.039414924 0.70400006
0.30724579 0.03954336 0.70300007
0.31244829 0.039390929 0.70357144
0.3166613 0.039235763 0.70080006
0.32274821 0.039530359 0.70166677
0.35912237 0.039957188 0.70050001
0.36309949 0.039370138 0.70320004
0.36689648 0.039586518 0.7026667
0.38297737 0.039575838 0.70159996
0.38873968 0.038636394 0.70333338
0.39281145 0.038774073 0.70200008
0.39539877 0.039300844 0.70200002
0.40423426 0.039928667 0.70000005
0.40817153 0.03895136 0.70233327
-0.091806382 0.044506885 0.70240003
-0.08533942 0.044608269 0.70400006
-0.083457045 0.044190887 0.70242864
-0.070822179 0.044576585 0.70350003
-0.067312449 0.044463433 0.70171434
-0.05558411 0.044544902 0.70300001
-0.054076049 0.044523779 0.7026667
-0.04042564 0.044576585 0.70350003
-0.037389301 0.044492099 0.70216674
-0.033366989 0.044557579 0.70320004
-0.021443389 0.043679427 0.70100003
