ply
format ascii 1.0
comment PCL generated
element vertex 199
property float x
property float y
property float z
element camera 1
property float view_px
property float view_py
property float view_pz
property float x_axisx
property float x_axisy
property float x_axisz
property float y_axisx
property float y_axisy
property float y_axisz
property float z_axisx
property float z_axisy
property float z_axisz
property float focal
property float scalex
property float scaley
property float centerx
property float centery
property int viewportx
property int viewporty
property float k1
property float k2
end_header
-0.001467526 -0.094367981 -0.61181641
0.0010563532 -0.097239174 -0.61197919
-0.0083770752 -0.080444336 -0.61035156
-0.0090236664 -0.077911377 -0.6105957
-0.019420078 -0.052586146 -0.61090958
-0.02319118 -0.044987269 -0.61174667
-0.01953125 -0.049194336 -0.61067706
-0.00066041946 -0.040588379 -0.61035156
-0.027584258 -0.015504019 -0.6111421
-0.028961182 -0.0062966347 -0.61035156
-0.035117716 0.0047336109 -0.6117419
-0.045508489 0.014530775 -0.61263019
-0.037966918 0.012137604 -0.61044919
-0.049530029 0.021133423 -0.61035156
-0.030695597 0.027379354 -0.61083984
-0.05622277 0.045351468 -0.61265522
-0.040808104 0.047924805 -0.61074221
-0.055906024 0.055031914 -0.61195594
-0.058148194 0.063195802 -0.61074221
-0.06572324 0.073621474 -0.61170018
-0.075643308 0.084952392 -0.61236328
-0.061096191 0.088653564 -0.61035156
-0.077589557 0.093700059 -0.61083984
-0.08496812 0.10495055 -0.61301315
-0.070129395 0.10986328 -0.61035156
-0.085229903 0.1146592 -0.61124539
-0.094942287 0.1248211 -0.61210263
-0.085639104 0.1231712 -0.61038774
0.0074106851 -0.11297201 -0.60419923
0.010749817 -0.11096191 -0.60107422
0.074462891 -0.11087036 -0.60400391
0.0073004831 -0.10379594 -0.60691553
0.014189807 -0.10420227 -0.60167348
0.025302123 -0.10097656 -0.60146487
0.031105042 -0.10043335 -0.60253906
-0.0016222 -0.090866089 -0.60900879
0.0055920896 -0.094665527 -0.60516828
0.015191436 -0.095129013 -0.60119629
0.023529835 -0.096025519 -0.60446715
0.030105591 -0.09942627 -0.60791016
-0.0034259332 -0.084337391 -0.60660368
0.0052131042 -0.084949933 -0.60243499
0.015272992 -0.085049205 -0.60225362
0.021417618 -0.087417603 -0.60705566
-0.011241913 -0.072250366 -0.60864258
-0.0045888335 -0.074801974 -0.60565865
0.0050544813 -0.074911118 -0.60173035
0.013971743 -0.075692885 -0.60418433
-0.012921241 -0.064589962 -0.60701233
-0.0051146299 -0.064997673 -0.60380554
0.0050725341 -0.064898491 -0.60298157
0.011335373 -0.067710876 -0.60681152
-0.014357474 -0.05513569 -0.60681868
-0.0051115677 -0.054813862 -0.60375977
0.0039432207 -0.055847168 -0.60499132
-0.021209717 -0.04309082 -0.609375
-0.015158356 -0.044612698 -0.60616517
-0.0051893811 -0.04479593 -0.60505021
0.0013356738 -0.047546387 -0.6076389
-0.021447754 -0.033961486 -0.60878909
-0.015331745 -0.03452754 -0.60514832
-0.0067650476 -0.035083588 -0.60588729
-0.022319593 -0.02474574 -0.60819286
-0.015345982 -0.02498981 -0.60585243
-0.0087677641 -0.02655538 -0.60762531
-0.023114605 -0.01490513 -0.60814643
-0.016310299 -0.015873779 -0.60695273
-0.024796683 -0.0051472681 -0.6080299
-0.018425319 -0.0062357238 -0.60776156
-0.031201173 0.0090286257 -0.60908204
-0.025658017 0.0050213225 -0.60909599
-0.042797852 0.018597413 -0.60823566
-0.034033317 0.015894996 -0.60800964
-0.02781423 0.014105479 -0.60872394
-0.050720215 0.026885986 -0.609375
-0.044639952 0.025524806 -0.60561603
-0.035182528 0.024976376 -0.60664421
-0.051159199 0.035260715 -0.60813552
-0.044658661 0.034992218 -0.60498047
-0.036872864 0.034123011 -0.60745674
-0.051501106 0.044227153 -0.60828352
-0.045154635 0.044453766 -0.60682601
-0.03873698 0.040771484 -0.60888672
-0.051374163 0.056145806 -0.609375
-0.046775416 0.054345381 -0.60805148
-0.054294668 0.06607835 -0.60850233
-0.048957825 0.062995911 -0.609375
-0.063001357 0.077466689 -0.60916573
-0.057678223 0.074343078 -0.60932076
-0.070541382 0.085851036 -0.609375
-0.064949885 0.084438749 -0.60858834
-0.058798216 0.08190918 -0.60893553
-0.073331267 0.095491976 -0.60893953
-0.066890404 0.094254777 -0.60874158
-0.08026123 0.10519409 -0.609375
-0.074487112 0.10500663 -0.60844493
-0.068725586 0.10263062 -0.609375
-0.080581665 0.11903381 -0.609375
-0.076804422 0.11477014 -0.609375
-0.084399417 0.12586844 -0.609375
-0.078125 0.12213135 -0.609375
-0.086669922 0.13024902 -0.609375
-0.014729091 -0.12482561 -0.59256417
-0.007306417 -0.1210734 -0.59293622
-0.0025169849 -0.11820475 -0.59326172
0.0048825308 -0.11565607 -0.59441584
0.01273489 -0.11175537 -0.59417725
0.017201843 -0.10755615 -0.59646487
0.024768919 -0.1045589 -0.59539652
0.032031249 -0.10161743 -0.59414065
0.069152832 -0.10107422 -0.59179688
0.07154192 -0.10408238 -0.59507531
0.035668947 -0.099133298 -0.59423828
0.044883728 -0.094894409 -0.59204102
0.054741271 -0.092017762 -0.59284317
0.065667726 -0.094592288 -0.59257811
0.058587648 -0.089306638 -0.59541017
0.061590575 -0.088928223 -0.59306639
-0.0104599 -0.16040039 -0.58300781
-0.0044341902 -0.1637201 -0.58267432
0.0046716603 -0.16437601 -0.58263052
0.012787228 -0.16306269 -0.58128721
-0.012110901 -0.15341797 -0.58183593
-0.0061207907 -0.15641741 -0.58080357
0.0048767924 -0.15911865 -0.58032227
0.012365341 -0.15924072 -0.5802002
0.037840191 -0.1550293 -0.58007813
0.041890461 -0.15436469 -0.58007813
-0.013405344 -0.14422342 -0.58079994
-0.0088370191 -0.14524624 -0.58007813
-0.020474752 -0.13273112 -0.58805341
-0.014668056 -0.13469413 -0.58385879
-0.0058354936 -0.13397217 -0.58103436
0.0012061596 -0.13024902 -0.58007813
-0.013895744 -0.12724958 -0.58836496
-0.0048961574 -0.12534128 -0.58513975
0.0042543653 -0.1240824 -0.58214712
0.012114207 -0.12172445 -0.58040363
-0.0018784659 -0.11913191 -0.58858818
0.0059300456 -0.11803357 -0.58684671
0.014993237 -0.11540075 -0.58401591
0.023535989 -0.11228434 -0.58214962
0.019226074 -0.10998535 -0.58886719
0.025992801 -0.10828508 -0.58660018
0.035019834 -0.10487206 -0.58421761
0.044752963 -0.10262423 -0.58230376
0.052511595 -0.10098877 -0.58095706
0.066766359 -0.10302734 -0.58344728
0.070414223 -0.10522461 -0.58789063
0.038372803 -0.098852538 -0.58925784
0.045269307 -0.097443409 -0.58766526
0.055399403 -0.096589185 -0.58551657
0.063212551 -0.095849328 -0.58634627
0.017929077 -0.16101074 -0.57910156
0.024393082 -0.16049194 -0.57897949
-0.0028219223 -0.15301269 -0.57855469
0.0048536658 -0.15349834 -0.57786053
0.014929227 -0.15420969 -0.57800293
0.024991142 -0.15493435 -0.57872176
0.033751659 -0.15456918 -0.5789513
0.044872284 -0.15155029 -0.57861328
0.050537109 -0.1505127 -0.578125
-0.0045541343 -0.14492643 -0.57837325
0.0048402995 -0.14462662 -0.57655334
0.014729661 -0.14446928 -0.5754357
0.025191484 -0.14519954 -0.57590705
0.035359271 -0.14494298 -0.57637048
0.044942856 -0.14463806 -0.57659912
0.054410737 -0.14441338 -0.57721579
0.062308755 -0.14200033 -0.57792968
-0.0025679849 -0.13745117 -0.578924
0.0048199841 -0.13488951 -0.57755655
0.015282982 -0.13483308 -0.5749383
0.025254915 -0.13527055 -0.57333094
0.034885094 -0.13522789 -0.57335424
0.044719696 -0.13487461 -0.5736084
0.054759365 -0.13472427 -0.57509291
0.064700551 -0.13492902 -0.57717848
0.073969059 -0.13333407 -0.57815456
0.0076473779 -0.12806919 -0.57868302
0.015394807 -0.12565517 -0.57723999
0.025130615 -0.12496257 -0.57426435
0.035008114 -0.12507121 -0.57277423
0.044670105 -0.12506782 -0.57275391
0.054829508 -0.12475016 -0.5731836
0.065414906 -0.12488937 -0.57504272
0.074441008 -0.12542494 -0.57563752
0.018498739 -0.11867269 -0.57910156
0.025789944 -0.11656909 -0.57720369
0.035163455 -0.11472744 -0.57568359
0.044651199 -0.11472221 -0.57449472
0.054965548 -0.1148707 -0.57307267
0.06520462 -0.11484718 -0.57289124
0.072492048 -0.11539189 -0.57303745
0.037194148 -0.10888672 -0.57899308
0.045799702 -0.10751881 -0.57795268
0.055259049 -0.10575648 -0.5763393
0.064229734 -0.10628906 -0.57617188
0.071548462 -0.10844421 -0.57446289
0 0 0 1 0 0 0 1 0 0 0 1 0 0 0 0 0 199 1 0 0
